1.66572 1.87404 1.72514 0.151032 -0.295822 0.943228
2.53721 1.59414 1.53092 0.103569 -0.307869 0.945775
3.59031 1.5755 1.43634 0.067771 -0.312174 0.947604
4.67089 1.58218 1.46321 -0.0689216 -0.293586 0.953445
5.68378 1.6226 1.56917 -0.116212 -0.300224 0.946763
6.27102 2.10286 1.80159 -0.131354 -0.298387 0.945318
5.65471 3.04492 2.01329 -0.101881 -0.292108 0.950942
5.16278 4.12036 2.2231 -0.0912197 -0.196224 0.976307
4.80784 5.06144 2.35417 -0.0849491 -0.155577 0.984164
4.41731 6.02795 2.48354 -0.0583866 -0.166855 0.984251
4.08031 7.10778 2.62663 -0.0392475 -0.108231 0.993351
4.24276 8.10156 2.70597 -0.0370904 -0.0432468 0.998343
4.44501 9.13144 2.77198 -0.052177 -0.0540654 0.996894
4.58407 10.2523 2.83626 -0.0568138 -0.0374796 0.997681
4.70146 11.2442 2.88774 -0.0685955 -0.0145151 0.997539
4.84056 12.3678 2.93211 -0.0425443 -0.0265944 0.998741
5.03376 13.4039 2.97905 -0.0616611 -0.0299427 0.997644
5.20159 14.4769 3.03067 -0.102266 -0.0162763 0.994624
5.18341 15.4767 3.05456 -0.114423 -0.0311029 0.992945
5.18435 16.4983 3.08464 -0.101277 -0.0231451 0.994203
5.23525 17.5668 3.10498 -0.116673 -0.0137333 0.992991
5.19448 18.6367 3.1046 -0.128277 0.0043586 0.99166
5.17724 19.6996 3.10212 -0.119247 0.0401749 0.992051
5.21579 20.7369 3.12995 -0.132023 -0.00540021 0.99123
5.24568 21.7571 3.14164 -0.153568 -0.00851925 0.98807
5.23186 22.8643 3.13119 -0.160833 -0.0125066 0.986056
5.24241 23.8659 3.15766 -0.129621 0.00438172 0.991057
5.20173 24.8771 3.16426 -0.140945 -0.0104867 0.989962
5.04646 26.0257 3.12528 -0.0863998 0.00616436 0.996241
4.65291 27.012 3.15331 -0.0786227 -0.0981896 0.992057
3.8835 26.9026 3.15299 0.0334512 -0.0437504 0.998482
3.55647 25.9015 3.13649 0.136844 -0.0169033 0.990448
3.4501 24.7165 3.13874 0.190459 -0.0216942 0.981185
3.50619 23.7157 3.13198 0.12145 0.0174182 0.992445
3.44041 22.5757 3.12448 0.101528 -0.048374 0.993656
3.34967 21.5753 3.13179 0.173822 -0.00882056 0.984738
3.38944 20.5605 3.10189 0.146014 -0.00358726 0.989169
3.41887 19.5186 3.09961 0.0648762 -0.0167693 0.997752
3.33587 18.334 3.08534 0.132757 -0.00221438 0.990976
3.26125 17.2343 3.0811 0.134857 0.0249897 0.99055
3.33536 16.2255 3.05218 0.083038 -0.0205826 0.996288
3.29622 15.1993 3.02811 0.0918479 -0.0288792 0.995353
3.26325 14.0663 3.00269 0.0860892 -0.0414565 0.995425
3.39742 12.9652 2.95386 0.0610513 -0.0209404 0.997707
3.51977 11.8158 2.90487 0.0472207 -0.0700392 0.996426
3.58448 10.7996 2.8573 0.0499878 -0.0554688 0.997208
3.64217 9.77207 2.79025 0.0371568 -0.0659828 0.996682
3.77801 8.7181 2.73279 0.0543948 -0.0472549 0.997399
3.98228 7.57214 2.67054 0.0195202 -0.0918132 0.995585
3.7755 6.50916 2.54836 0.0425071 -0.168739 0.984744
3.37293 5.55039 2.41632 0.0765387 -0.160474 0.984068
2.96444 4.52393 2.27631 0.066852 -0.169811 0.983207
2.51064 3.51214 2.11138 0.0961864 -0.24163 0.96559
1.88609 2.50788 1.89427 0.131046 -0.297134 0.945728
1.67307 1.98754 1.75956 0.151032 -0.295822 0.943228
0.610058 1.93535 1.92671 0.169327 -0.303187 0.937767
0.992112 2.97152 2.19021 0.171357 -0.30179 0.937845
1.61198 3.91878 2.32534 0.151874 -0.179825 0.971904
2.03854 4.98688 2.44989 0.154757 -0.155401 0.975654
2.38668 5.94685 2.56813 0.111201 -0.153802 0.981793
2.78504 6.92969 2.67649 0.0889787 -0.125734 0.9879
2.76044 7.93375 2.76727 0.0829799 -0.0627193 0.994535
2.63712 9.00354 2.8435 0.110793 -0.0632133 0.991822
2.53753 10.0948 2.9274 0.120555 -0.0618185 0.990777
2.46243 11.1097 2.99121 0.139136 -0.0413152 0.989363
2.42452 12.2137 3.04202 0.157397 -0.0343533 0.986875
2.25906 13.2375 3.10384 0.167233 -0.0205591 0.985703
2.16689 14.2713 3.1522 0.153161 -0.0447985 0.987137
2.22601 15.2767 3.17943 0.195885 -0.0651619 0.97846
2.26902 16.3866 3.22422 0.204743 -0.0515497 0.977457
2.1561 17.4545 3.27774 0.205299 -0.0390244 0.977921
2.31353 18.529 3.27746 0.265401 -0.0124702 0.964057
2.37605 19.5616 3.28465 0.301187 -0.0248251 0.953242
2.34818 20.6611 3.32434 0.2649 -0.0100619 0.964223
2.31891 21.6612 3.35629 0.261958 -0.0137934 0.964981
2.43277 22.749 3.33997 0.29595 -0.026935 0.954804
2.46627 23.9694 3.34964 0.2784 -0.00420084 0.960456
2.40741 25.1848 3.38239 0.275715 -0.00456403 0.961195
2.55781 26.2758 3.35344 0.296158 -0.0547748 0.953567
2.8802 27.225 3.30562 0.280456 -0.166788 0.944184
3.53136 28.1517 3.30393 0.255913 -0.265115 0.929636
4.43587 28.4417 3.31018 -0.188779 -0.144255 0.971366
5.31724 27.9613 3.36242 -0.201539 -0.188998 0.961027
5.79877 27.0568 3.34245 -0.248684 -0.115134 0.96127
6.07635 26.035 3.36485 -0.30066 -0.0137866 0.953627
6.22892 25.021 3.38316 -0.276243 -0.0449889 0.960011
6.29601 23.8567 3.38059 -0.260553 -0.00395456 0.965333
6.30163 22.7877 3.36422 -0.286846 -0.00435461 0.957967
6.33623 21.7651 3.36137 -0.28811 -0.015269 0.957467
6.27891 20.7415 3.33936 -0.262148 -0.020099 0.964391
6.21859 19.7201 3.32112 -0.244339 -0.01108 0.969626
6.21591 18.6614 3.30153 -0.247693 -0.0130776 0.96875
6.30052 17.6463 3.28827 -0.224799 -0.0338754 0.973816
6.25087 16.4741 3.25462 -0.193239 -0.020827 0.980917
6.24036 15.323 3.20443 -0.194651 -0.0551153 0.979323
6.25993 14.2136 3.15711 -0.180897 -0.0290551 0.983073
6.05185 13.1604 3.09317 -0.164716 -0.0091006 0.986299
5.86829 12.1264 3.03879 -0.16943 -0.0401932 0.984691
5.74419 11.0534 2.98532 -0.124823 -0.0384242 0.991411
5.61231 10.031 2.92267 -0.117793 -0.0537583 0.991582
5.47316 8.87766 2.84259 -0.0951888 -0.0577085 0.993776
5.30702 7.85602 2.76782 -0.0900843 -0.0562606 0.994344
5.256 6.76858 2.66517 -0.0889453 -0.150212 0.984645
5.66587 5.77768 2.54832 -0.100971 -0.165262 0.981067
6.04028 4.67692 2.41583 -0.130561 -0.160902 0.978272
6.42096 3.7016 2.29705 -0.159055 -0.221596 0.962069
7.1024 2.78064 2.16451 -0.182206 -0.299991 0.936379
7.38734 1.78893 1.89876 -0.176166 -0.300855 0.937252
7.34715 0.801695 1.57115 -0.172604 -0.308768 0.935337
6.45999 0.616936 1.3526 -0.15437 -0.308254 0.938696
5.36297 0.590913 1.19775 -0.093924 -0.319913 0.94275
4.36012 0.584175 1.1131 -0.0592984 -0.306028 0.950174
3.27516 0.591393 1.1366 0.067074 -0.310918 0.948067
2.24093 0.602337 1.23949 0.110179 -0.320306 0.940885
1.24775 0.594553 1.38054 0.154177 -0.315949 0.936152
0.618137 1.12787 1.66469 0.167706 -0.308266 0.936401
0.606307 1.67574 1.84346 0.169327 -0.303187 0.937767
2.96198 2.07669 1.64339 0.0816813 -0.299165 0.950699
3.96449 2.09202 1.59493 0.00161369 -0.284679 0.958622
4.58996 2.0855 1.61607 -0.0511426 -0.29778 0.953264
5.04337 2.92032 1.91537 -0.0803156 -0.288326 0.954158
4.00122 2.9342 1.86411 -0.000451956 -0.284541 0.958664
2.84258 2.92029 1.9147 0.0662687 -0.290947 0.954441
2.82425 2.91994 1.91599 0.0829721 -0.288585 0.953853
3.23718 3.78152 2.11527 0.0823861 -0.226053 0.970625
4.29301 3.78569 2.09771 -0.0373122 -0.231826 0.972041
4.58426 3.78329 2.10823 -0.0599272 -0.238485 0.969296
4.34237 4.65423 2.25668 -0.0684887 -0.161129 0.984554
3.61243 4.65327 2.26232 0.02601 -0.159033 0.986931
4.04891 12.5816 2.9243 -0.00334249 -0.0273629 0.99962
4.29432 12.5816 2.92597 -0.00774633 -0.028095 0.999575
4.39554 13.4696 2.9499 -0.0203824 -0.0281884 0.999395
3.89064 13.4693 2.94862 0.0178066 -0.0408615 0.999006
3.81865 14.3577 2.97683 0.051227 -0.0390573 0.997923
4.60534 14.3577 2.98881 -0.0521792 -0.0240982 0.998347
4.58715 15.2477 3.00643 -0.0461501 -0.0351364 0.998316
3.97987 15.2474 3.00183 0.0156992 -0.0352297 0.999256
3.9487 16.1375 3.02753 0.0122053 -0.000161031 0.999925
4.56423 16.1378 3.03256 -0.0314265 -0.0156475 0.999384
4.60003 17.03 3.03168 -0.0819189 -0.0256489 0.996309
3.98711 17.03 3.01974 0.0473935 -0.000885995 0.998876
3.82207 17.924 3.02886 0.0739415 -0.00646182 0.997242
4.58221 17.9244 3.03776 -0.0791976 -0.014622 0.996752
4.63223 18.8211 3.04705 -0.0746377 0.0040731 0.997202
4.08375 18.8214 3.04165 0.0143414 -0.0313125 0.999407
4.09959 19.7191 3.06959 0.0285322 -0.0275335 0.999214
4.59887 19.7197 3.0725 -0.0311455 -0.0170697 0.999369
4.61591 20.6173 3.06894 -0.0787388 0.0130092 0.99681
4.05914 20.6173 3.0553 0.047299 -0.0166969 0.998741
3.92633 21.5183 3.051 0.0559148 -0.0147817 0.998326
4.68405 21.5172 3.08277 -0.104163 0.00394971 0.994552
4.60322 22.4189 3.08593 -0.020924 -0.0385323 0.999038
3.95876 22.4185 3.07425 0.0452448 -0.0456982 0.99793
4.0525 23.3196 3.10114 0.0326638 0.0259346 0.99913
4.62334 23.3195 3.10327 -0.0661548 -0.0100659 0.997759
4.7046 24.2219 3.0999 -0.07054 -0.0199393 0.99731
4.01403 24.2214 3.08787 0.0381421 0.0035466 0.999266
4.10995 25.1254 3.08049 0.014579 -0.0581888 0.998199
4.63914 25.1248 3.0944 -0.0273358 -0.0152264 0.99951
4.50131 26.0311 3.0939 -0.0270448 -0.0225389 0.99938
4.2873 26.032 3.08812 -0.0114421 -0.0121695 0.99986
4.24021 26.0321 3.08832 0.0247084 -0.016108 0.999565
