1.4967 22.1991 2.84441 0.351917 -0.0316264 0.93549
1.5159 23.2665 2.87466 0.366469 -0.00657998 0.930382
1.51683 24.2954 2.87001 0.352291 0.0053606 0.935869
1.50945 25.4224 2.86379 0.3663 0.00167689 0.930495
1.57599 26.4562 2.87188 0.410113 -0.0661582 0.909632
2.03005 27.3435 2.7665 0.447428 -0.123035 0.884713
2.64719 28.1224 2.60514 0.377178 -0.250714 0.889204
3.45281 28.8624 2.54249 0.312601 -0.289566 0.904672
4.40149 29.2836 2.39121 -0.386101 -0.240261 0.890618
5.34909 28.6283 2.60043 -0.36284 -0.21503 0.906702
6.09636 27.8149 2.71906 -0.321451 -0.142262 0.936179
6.46727 26.7723 2.69478 -0.351751 -0.083206 0.932388
6.45783 25.7419 2.64315 -0.295323 -0.0162604 0.955259
6.4804 24.608 2.6312 -0.294701 -0.010432 0.955515
6.47116 23.5979 2.61829 -0.280193 -0.0091235 0.959835
6.45187 22.3788 2.61133 -0.276348 -0.00199316 0.961055
6.43796 21.3041 2.60061 -0.269975 -0.00150164 0.962866
6.4049 20.1989 2.58501 -0.269277 -0.00870143 0.963024
6.43122 19.0906 2.57325 -0.261053 -0.0144996 0.965136
6.42912 18.0441 2.55192 -0.230164 -0.0289654 0.972721
6.37875 17.0165 2.50985 -0.205186 -0.0328917 0.97817
6.36328 15.9526 2.47765 -0.186561 -0.0260931 0.982097
6.36889 14.8962 2.4373 -0.180769 -0.0500234 0.982248
6.37858 13.8296 2.3902 -0.188267 -0.0202883 0.981889
6.36577 12.7227 2.36717 -0.169188 -0.0153212 0.985465
6.37503 11.6668 2.33156 -0.176771 -0.0340236 0.983664
6.40721 10.6511 2.3 -0.180546 -0.0429385 0.982629
6.42218 9.58103 2.25428 -0.190331 -0.0521615 0.980333
6.42709 8.53188 2.19505 -0.198186 -0.0595131 0.978353
6.41315 7.44038 2.11793 -0.186708 -0.0780056 0.97928
6.42174 6.32901 1.97895 -0.164915 -0.158589 0.973474
6.41668 5.2609 1.80783 -0.176802 -0.168064 0.969792
6.39935 4.13555 1.59652 -0.187994 -0.206305 0.960258
6.37631 3.13605 1.3401 -0.155886 -0.275473 0.948493
6.38716 2.15046 1.03722 -0.149081 -0.300599 0.942003
5.78074 1.54964 0.757115 -0.113747 -0.319879 0.940606
4.74418 1.56594 0.66006 -0.0792955 -0.311522 0.946912
3.66533 1.56855 0.626125 0.0347999 -0.323822 0.945221
2.64107 1.55301 0.704469 0.0883406 -0.319453 0.943475
1.66437 1.70277 0.871649 0.13924 -0.310019 0.940479
1.61322 2.68498 1.19406 0.144201 -0.291607 0.945606
1.61391 3.67041 1.47815 0.150767 -0.244438 0.957781
1.60022 4.7215 1.69827 0.176064 -0.173385 0.968989
1.59687 5.90306 1.90537 0.18293 -0.165541 0.969082
1.61338 6.91653 2.05602 0.176625 -0.133946 0.975122
1.57417 8.04422 2.17802 0.182319 -0.0860657 0.979447
1.57292 9.06482 2.25276 0.204668 -0.0716132 0.9761
1.59274 10.2625 2.33188 0.213777 -0.0566102 0.975239
1.60933 11.2681 2.37419 0.205661 -0.0322673 0.978091
1.59971 12.3337 2.41853 0.192306 -0.0322554 0.980791
1.57642 13.3349 2.45003 0.204902 -0.0212051 0.978546
1.60052 14.4756 2.49259 0.207106 -0.0307849 0.977829
1.5981 15.596 2.55661 0.258894 -0.0592856 0.964085
1.57431 16.7746 2.61712 0.249936 -0.0372142 0.967531
1.57302 17.8486 2.66119 0.280799 -0.0391584 0.958771
1.52757 18.8621 2.72781 0.330609 -0.0561373 0.942072
1.56486 19.8981 2.77139 0.339595 -0.0315737 0.940042
1.52498 20.9236 2.80555 0.349358 -0.00453633 0.936978
1.49988 21.9935 2.83775 0.363211 -0.0183053 0.931527
1.49849 22.0653 2.8397 0.357428 -0.0232427 0.933618
0.547511 22.0228 3.23055 0.390264 -0.0346407 0.920048
0.559581 20.9322 3.18526 0.388192 -0.0294428 0.921108
0.585299 19.7851 3.12441 0.358072 -0.0563541 0.931992
0.549763 18.7004 3.06426 0.334722 -0.0740044 0.939404
0.591674 17.6376 2.95585 0.318557 -0.0805428 0.944476
0.574679 16.4954 2.8833 0.280366 -0.0636168 0.957783
0.589783 15.2895 2.81147 0.265437 -0.0582284 0.962368
0.596184 14.1179 2.74457 0.267683 -0.049667 0.962225
0.595004 12.9393 2.68727 0.261649 -0.0432393 0.964194
0.57936 11.919 2.64751 0.243823 -0.0403342 0.968981
0.604391 10.9155 2.59731 0.237724 -0.0425973 0.970398
0.591667 9.80193 2.53068 0.219447 -0.0768476 0.972585
0.584989 8.71357 2.4425 0.211772 -0.0862637 0.973505
0.574358 7.59519 2.34381 0.209943 -0.0947678 0.97311
0.598246 6.57743 2.20849 0.202495 -0.153983 0.966968
0.589008 5.55742 2.03661 0.175278 -0.169671 0.969767
0.592818 4.56206 1.85408 0.171701 -0.192169 0.966218
0.603849 3.51221 1.61962 0.170761 -0.24343 0.954768
0.612876 2.51593 1.31435 0.167503 -0.298491 0.939599
0.616982 1.42352 0.956155 0.165208 -0.310561 0.936086
0.83874 0.581622 0.626618 0.159058 -0.326085 0.931863
1.86736 0.579613 0.459152 0.133633 -0.32897 0.934837
3.00789 0.578388 0.345092 0.0698551 -0.320998 0.9445
4.15458 0.574324 0.296597 -0.0352016 -0.32861 0.943583
5.24252 0.580053 0.372901 -0.0880572 -0.325178 0.941538
6.26896 0.575054 0.490499 -0.14831 -0.328608 0.932749
7.33452 0.737265 0.731 -0.165614 -0.325342 0.930973
7.38969 1.71671 1.07464 -0.169364 -0.309599 0.935663
7.38948 2.68712 1.39063 -0.177117 -0.304661 0.935848
7.38516 3.79607 1.71166 -0.165454 -0.219469 0.961488
7.41648 4.96772 1.9422 -0.178073 -0.165004 0.970084
7.42608 6.01759 2.11928 -0.184765 -0.162863 0.969194
7.41137 7.03352 2.26887 -0.183751 -0.132378 0.974018
7.40609 8.13265 2.36313 -0.191712 -0.0671784 0.979148
7.4137 9.29286 2.43347 -0.194419 -0.0469989 0.979792
7.41324 10.4392 2.48253 -0.19009 -0.0361408 0.9811
7.39207 11.4632 2.51354 -0.1879 -0.0332444 0.981625
7.39186 12.5568 2.5488 -0.185824 -0.0304699 0.982103
7.40663 13.6135 2.58672 -0.200434 -0.0379218 0.978971
7.38087 14.6393 2.62516 -0.202216 -0.0464604 0.978238
7.40916 15.6643 2.67792 -0.200474 -0.037807 0.978969
7.40021 16.7653 2.72634 -0.221728 -0.0467016 0.973964
7.41743 17.8436 2.78965 -0.24366 -0.0480691 0.968661
7.41576 18.8723 2.83503 -0.260121 -0.0383384 0.964809
7.39159 19.9617 2.86479 -0.283087 -0.0215472 0.95884
7.41471 20.9824 2.88844 -0.297303 -0.0105802 0.954717
7.44031 22.0349 2.90557 -0.311104 -0.00663316 0.950353
7.42514 23.1709 2.90735 -0.295302 -0.00403886 0.955392
7.43657 24.218 2.92042 -0.303949 -0.0212687 0.952445
7.42903 25.2306 2.95367 -0.31522 -0.0442912 0.94798
7.421 26.327 3.01247 -0.346018 -0.0796079 0.934737
7.41065 27.3339 3.15418 -0.418747 -0.220608 0.879805
6.96591 28.2159 3.19602 -0.449742 -0.231044 0.862758
6.2251 29.0404 3.12124 -0.449335 -0.354898 0.819845
5.34321 29.8369 3.10448 -0.465332 -0.442496 0.766593
4.34794 30.1195 3.03541 0.128309 -0.710627 0.69177
3.29648 29.8547 3.07247 0.331182 -0.613233 0.717122
2.46249 29.234 3.0969 0.47382 -0.45975 0.751082
1.67905 28.3843 3.17977 0.497236 -0.308182 0.811037
1.01549 27.4446 3.26412 0.415933 -0.217182 0.882652
0.576889 26.5534 3.29648 0.393963 -0.0958303 0.914117
0.561242 25.4058 3.25206 0.378321 -0.020241 0.925453
0.56209 24.2604 3.25278 0.376693 0.0120581 0.926258
0.54815 23.2247 3.26386 0.37201 -0.00836438 0.928191
0.54845 22.1121 3.23328 0.390762 -0.0325816 0.919914
1.99171 21.8032 2.64917 0.344441 -0.0268109 0.938425
2.9897 21.8126 2.39971 0.223489 0.000424614 0.974706
4.07238 21.8169 2.26239 0.00590752 -0.0118985 0.999912
5.18258 21.8171 2.33722 -0.103204 0.0150756 0.994546
5.9148 21.8146 2.46366 -0.215384 -0.00903959 0.976488
5.83048 20.8939 2.44519 -0.20265 -0.0066101 0.979229
4.80481 20.8955 2.28765 -0.0818973 -0.0381356 0.995911
3.77037 20.8941 2.28082 0.0730241 0.00192211 0.997328
2.76689 20.8889 2.42709 0.225693 -0.021546 0.97396
2.07695 20.8817 2.6133 0.292824 -0.0281009 0.955753
2.10003 19.9609 2.58491 0.332569 -0.0242713 0.942767
3.07434 19.9717 2.33958 0.147687 -0.00322982 0.989029
4.17043 19.9771 2.27038 0.027246 0.000155227 0.999629
5.21251 19.9779 2.32704 -0.128392 -0.0219105 0.991481
5.81598 19.976 2.43425 -0.215196 0.000637314 0.976571
5.88009 19.059 2.43914 -0.197689 -0.0176607 0.980106
4.85887 19.0622 2.2861 -0.064347 0.00641205 0.997907
3.81483 19.0601 2.26481 0.0417105 -0.0263519 0.998782
2.81355 19.0535 2.39058 0.208819 0.0196282 0.977757
2.14344 19.0465 2.53679 0.267367 -0.0423168 0.962665
2.1138 18.1327 2.52405 0.261854 -0.0350628 0.96447
3.24027 18.1443 2.3147 0.128255 0.0058043 0.991724
4.32011 18.1481 2.2496 -0.0413213 -0.0261307 0.998804
5.32838 18.1488 2.34619 -0.145181 0.000448793 0.989405
5.80969 18.1477 2.41893 -0.189024 -0.0139566 0.981873
5.76656 17.2371 2.39619 -0.171864 -0.0262788 0.98477
4.61226 17.2401 2.25278 -0.0962626 0.00755762 0.995327
3.61112 17.2379 2.26097 0.0827923 0.0239647 0.996279
2.57489 17.2294 2.40963 0.177502 -0.0494262 0.982879
2.1333 17.2239 2.49802 0.200949 -0.0455766 0.978541
2.29537 16.3194 2.42957 0.213078 -0.0252959 0.976708
3.33133 16.328 2.27808 0.0759286 -0.0196643 0.996919
4.41759 16.3318 2.23995 -0.00471015 0.0226205 0.999733
5.45079 16.3313 2.32514 -0.11366 -0.0213498 0.99329
5.83089 16.3295 2.38866 -0.171867 -0.0194843 0.984928
5.74243 15.4241 2.35157 -0.162861 -0.0282107 0.986246
4.72921 15.4262 2.24297 -0.0571195 -0.0339719 0.997789
3.72572 15.4241 2.23173 0.00748813 -0.0213112 0.999745
2.62618 15.4177 2.33034 0.15048 -0.0244779 0.98831
2.19032 15.4133 2.41345 0.208481 -0.0465658 0.976917
2.19959 14.51 2.36925 0.187245 -0.0360947 0.98165
3.24037 14.5181 2.24691 0.0931803 -0.0169888 0.995504
4.32528 14.5218 2.20837 -0.0308669 -0.0275699 0.999143
5.43173 14.522 2.28444 -0.094574 -0.0250482 0.995203
5.68126 14.5212 2.30997 -0.144474 -0.034539 0.988906
5.83841 13.6171 2.30206 -0.114238 -0.0267345 0.993094
4.74607 13.6192 2.19767 -0.0575986 -0.0297333 0.997897
3.66349 13.6168 2.18472 0.0627475 -0.0240133 0.997741
2.64959 13.6109 2.27955 0.122483 -0.0374737 0.991763
2.1317 13.6067 2.35507 0.167578 -0.0336648 0.985284
2.2154 12.706 2.3137 0.173707 -0.0305732 0.984323
3.23845 12.7145 2.17703 0.0685729 -0.0218777 0.997406
4.28671 12.7174 2.15042 -0.00494431 -0.0231598 0.99972
5.36167 12.7164 2.21664 -0.108549 -0.0127047 0.99401
5.74189 12.715 2.26654 -0.151258 -0.00940096 0.98845
5.7552 11.8137 2.24305 -0.141691 -0.0312923 0.989416
4.68557 11.8171 2.13861 -0.0642246 -0.0268188 0.997575
3.64654 11.8154 2.12973 0.0276075 -0.0371782 0.998927
2.58828 11.8085 2.22358 0.135713 -0.0440423 0.989769
2.2769 11.8057 2.26788 0.167021 -0.0435233 0.984992
2.11818 10.9034 2.26412 0.177317 -0.0517407 0.982793
3.16961 10.9139 2.1188 0.110793 -0.0337643 0.99327
4.22136 10.918 2.07732 -0.0200976 -0.0453194 0.99877
5.26133 10.9158 2.15652 -0.097998 -0.0295773 0.994747
5.75451 10.9137 2.21098 -0.126341 -0.0242229 0.991691
5.75333 10.0142 2.17276 -0.121722 -0.0459194 0.991502
4.66221 10.0189 2.06365 -0.0898619 -0.0506914 0.994663
3.60207 10.0176 2.04548 0.0436247 -0.0534343 0.997618
2.48837 10.0087 2.15873 0.135295 -0.0582448 0.989092
2.12351 10.0047 2.21238 0.154379 -0.0594135 0.986224
2.11437 9.10648 2.15352 0.168155 -0.0604708 0.983904
3.18442 9.11777 2.0301 0.0783674 -0.0615861 0.99502
4.24801 9.12186 1.99247 -0.027542 -0.0482158 0.998457
5.34872 9.11828 2.07751 -0.0964485 -0.0597724 0.993542
5.89961 9.11449 2.14444 -0.148791 -0.0547443 0.987352
5.84288 8.21752 2.08233 -0.130602 -0.05546 0.989882
4.7556 8.22517 1.97778 -0.0712601 -0.0588094 0.995723
3.73623 8.22643 1.93969 0.0583543 -0.0640177 0.996241
2.69 8.21716 2.02357 0.100712 -0.0560547 0.993335
2.17667 8.21044 2.0865 0.164225 -0.0733662 0.983691
2.13685 7.31568 2.02022 0.133745 -0.0880285 0.987098
3.14398 7.32939 1.91536 0.0794521 -0.0947598 0.992325
4.19795 7.3352 1.88208 -0.0440434 -0.101886 0.993821
5.25637 7.32813 1.95439 -0.0925979 -0.0803035 0.99246
5.84035 7.32161 2.01689 -0.117726 -0.0849127 0.989409
5.89636 6.43013 1.91521 -0.130097 -0.155315 0.979261
4.76154 6.44542 1.80226 -0.0849891 -0.150283 0.984983
3.69644 6.44862 1.76994 0.00609014 -0.150267 0.988627
2.68429 6.43661 1.84439 0.0895666 -0.153624 0.984062
2.1888 6.42796 1.89901 0.136173 -0.140448 0.980679
2.13496 5.54305 1.7587 0.131654 -0.163568 0.977708
3.14183 5.56067 1.66449 0.0791852 -0.161795 0.983642
4.19411 5.56762 1.62794 -0.0411545 -0.153335 0.987317
5.31583 5.55485 1.70976 -0.0986122 -0.155183 0.982952
5.75572 5.54683 1.7582 -0.123457 -0.154519 0.980246
5.85833 4.66101 1.61982 -0.124296 -0.177742 0.976196
4.76974 4.68094 1.51874 -0.0849626 -0.165651 0.982518
3.73564 4.68754 1.47987 0.00378359 -0.174525 0.984645
2.58745 4.67032 1.56197 0.0827277 -0.169597 0.982035
2.10741 4.65944 1.61199 0.130083 -0.177481 0.975489
2.32264 3.78884 1.41072 0.121682 -0.247629 0.961183
3.38425 3.81053 1.3231 0.0647579 -0.239039 0.968848
4.38366 3.81172 1.32047 -0.045416 -0.247017 0.967946
5.42363 3.79383 1.39769 -0.0925014 -0.243944 0.965368
5.81045 3.78479 1.43579 -0.0961964 -0.220367 0.970662
5.83722 2.92276 1.19602 -0.120231 -0.284981 0.950963
4.78706 2.94753 1.10572 -0.0573685 -0.285419 0.956684
3.76877 2.95517 1.07682 0.0186814 -0.290351 0.956738
2.72218 2.93771 1.13716 0.0878069 -0.291519 0.952526
2.13327 2.92214 1.1917 0.103162 -0.288679 0.951852
2.36139 2.07556 0.901684 0.103802 -0.30088 0.947996
3.5003 2.10286 0.815678 0.0442193 -0.314515 0.948222
4.52382 2.10177 0.820512 -0.067172 -0.311075 0.948008
5.65031 2.0741 0.909418 -0.108535 -0.296942 0.948707
5.82721 22.7366 2.44516 -0.251796 -0.000348401 0.96778
4.78739 22.7386 2.30001 -0.0524206 0.0265316 0.998273
3.71324 22.738 2.29291 0.0504371 -0.0119308 0.998656
2.65787 22.7335 2.46508 0.213273 -0.0016558 0.976991
2.06296 22.7296 2.6579 0.337567 -0.0246268 0.940979
2.17255 23.6554 2.62593 0.332465 -0.000863495 0.943115
3.15192 23.6611 2.36055 0.193579 -0.0105345 0.981028
4.21894 23.6626 2.27585 0.033798 0.0343333 0.998839
5.31374 23.6619 2.34711 -0.137954 0.00626085 0.990419
5.95865 23.6582 2.4854 -0.238584 -0.0147902 0.971009
5.84235 24.5848 2.46558 -0.220162 -0.00547524 0.975448
4.84599 24.5924 2.29615 -0.0746622 0.00548633 0.997194
3.81223 24.5929 2.28462 0.0919929 0.00623682 0.99574
2.68063 24.5853 2.49131 0.253276 0.0132445 0.967303
2.0675 24.5771 2.66856 0.293308 0.029244 0.955571
2.13724 25.5064 2.63367 0.281856 -0.0195458 0.959258
3.27004 25.5248 2.35544 0.198723 0.0272696 0.979676
4.34961 25.5346 2.26283 -0.0125687 0.0073027 0.999894
5.37674 25.5251 2.37126 -0.196862 0.00544803 0.980416
5.86774 25.5148 2.47218 -0.237035 -0.00358461 0.971495
5.95446 26.4495 2.51462 -0.280763 -0.0411569 0.958894
4.7575 26.478 2.30549 -0.0683849 -0.0296082 0.99722
3.72952 26.4791 2.30392 0.062198 -0.0199908 0.997864
2.69339 26.4569 2.4519 0.275734 0.0426538 0.960287
2.16808 26.4394 2.62967 0.349353 -0.00612597 0.936971
2.6472 27.4101 2.48207 0.344293 -0.131409 0.92962
3.66756 27.4447 2.2928 -0.0410094 0.0428833 0.998238
4.72221 27.4442 2.35111 -0.106185 -0.0676238 0.992044
5.76716 27.4068 2.5542 -0.262113 -0.129582 0.956298
4.72155 28.436 2.38252 -0.277866 0.00478155 0.960608
3.92141 28.4544 2.26906 -0.0132353 0.025648 0.999583
3.84066 28.4531 2.27177 0.196377 -0.0511026 0.979196
