1.49047 25.1971 2.77952 0.363398 0.00551385 0.931618
1.53331 26.2788 2.7799 0.37181 -0.0345254 0.927647
1.81102 27.264 2.74727 0.411348 -0.118743 0.903711
2.45999 28.1105 2.58171 0.437657 -0.234311 0.866601
3.21919 28.9095 2.51471 0.318168 -0.341511 0.881755
4.12312 29.4573 2.33056 0.35063 -0.525152 0.775419
5.01528 29.1413 2.50674 -0.412235 -0.29351 0.859574
5.82165 28.3603 2.59392 -0.294692 -0.113992 0.948181
6.39289 27.4927 2.67742 -0.336641 -0.13275 0.932229
6.47168 26.45 2.57738 -0.323643 -0.0683534 0.942747
6.4645 25.4487 2.55228 -0.295599 -0.0149833 0.955181
6.46219 24.3112 2.53427 -0.273684 -0.0118731 0.961638
6.41846 23.2268 2.51354 -0.251596 -0.00801836 0.967792
6.4422 22.0855 2.5206 -0.269786 -0.00724291 0.962881
6.41236 21.0573 2.50685 -0.260235 0.00057549 0.965504
6.43179 19.9817 2.50397 -0.266135 -0.00849359 0.963898
6.40774 18.98 2.48552 -0.242872 -0.0176028 0.969899
6.38761 17.9144 2.45333 -0.220128 -0.0310228 0.974978
6.3784 16.8964 2.4164 -0.199746 -0.0298857 0.979392
6.38583 15.8014 2.39097 -0.174219 -0.0399716 0.983895
6.40259 14.6872 2.34485 -0.190453 -0.0570341 0.980038
6.3866 13.688 2.30047 -0.189243 -0.0306851 0.981393
6.36518 12.6544 2.27683 -0.17447 -0.0252947 0.984338
6.36641 11.6313 2.24344 -0.175568 -0.0380455 0.983732
6.40931 10.5945 2.21177 -0.184056 -0.0346758 0.982304
6.42222 9.55833 2.17031 -0.184223 -0.0594666 0.981084
6.41146 8.51443 2.11019 -0.181698 -0.0625188 0.981365
6.40641 7.38137 2.03055 -0.172017 -0.0936213 0.980511
6.40641 6.19286 1.87084 -0.161374 -0.147223 0.97585
6.4082 5.14123 1.69876 -0.172544 -0.166049 0.970897
6.40121 4.13132 1.50988 -0.147497 -0.214447 0.965535
6.37642 3.11056 1.24506 -0.156664 -0.267891 0.950626
6.38027 2.12511 0.940546 -0.151765 -0.309928 0.938569
5.75715 1.56044 0.668332 -0.111665 -0.319086 0.941124
4.75295 1.54778 0.56492 -0.0840548 -0.307005 0.947989
3.709 1.5099 0.515278 0.0252153 -0.331933 0.942933
2.56546 1.54811 0.618939 0.0947991 -0.31469 0.944363
1.64468 1.77379 0.808991 0.154162 -0.30796 0.938826
1.60289 2.79595 1.13882 0.159027 -0.284194 0.945486
1.586 3.85204 1.43232 0.174611 -0.241863 0.95447
1.61517 4.91777 1.64966 0.170039 -0.180806 0.968708
1.62243 5.91229 1.81972 0.16357 -0.155585 0.974186
1.60674 6.9089 1.96992 0.167996 -0.13019 0.977147
1.60011 7.94324 2.07912 0.191521 -0.0801889 0.978207
1.58256 9.13087 2.17183 0.21127 -0.0740381 0.97462
1.62046 10.1501 2.234 0.199429 -0.0559782 0.978312
1.58629 11.2618 2.2932 0.209941 -0.0325745 0.977171
1.59061 12.3001 2.32994 0.186744 -0.0362737 0.981739
1.5927 13.3767 2.36295 0.195384 -0.0290538 0.980165
1.58736 14.5326 2.41148 0.213487 -0.0515029 0.97539
1.60129 15.6413 2.47371 0.245744 -0.0520892 0.967932
1.5883 16.8219 2.52325 0.259591 -0.0348755 0.965078
1.54496 17.9959 2.58554 0.301147 -0.0529961 0.952104
1.55913 19.0962 2.64242 0.333033 -0.057252 0.941175
1.5258 20.2533 2.7047 0.344391 -0.0133776 0.938731
1.51584 21.3405 2.72471 0.358108 -0.0270959 0.933284
1.52499 22.362 2.7515 0.362536 -0.0405665 0.931086
1.51971 23.4984 2.78181 0.371892 -0.00418046 0.928267
1.51847 24.5246 2.77449 0.358788 0.0157749 0.93326
1.49883 24.9456 2.77775 0.363397 0.00551377 0.931618
0.538768 24.9917 3.16537 0.370513 -0.00555388 0.928811
0.553715 26.0316 3.17507 0.390126 -0.0322439 0.92019
0.696744 27.1816 3.24932 0.403852 -0.196254 0.893526
1.2453 28.0756 3.22495 0.454259 -0.252723 0.854271
1.93777 28.8535 3.08931 0.558446 -0.480912 0.675916
2.71041 29.69 3.09094 0.36819 -0.461055 0.807381
3.63016 30.1487 3.04538 0.286262 -0.680482 0.674536
4.6222 30.2527 3.03686 -0.0725996 -0.733322 0.673384
5.66773 29.7225 3.09729 -0.395938 -0.476683 0.784861
6.47554 28.9876 3.10919 -0.456178 -0.36102 0.811869
7.14705 28.1579 3.18907 -0.424212 -0.276366 0.862361
7.44759 27.1567 3.04921 -0.398809 -0.175078 0.900009
7.42934 26.1146 2.90784 -0.340203 -0.0571798 0.938525
7.44635 25.0529 2.85936 -0.315263 -0.0349202 0.948362
7.43774 23.9847 2.82533 -0.299412 -0.00858191 0.954085
7.42515 22.9381 2.81647 -0.296061 -0.00505225 0.955156
7.43132 21.8176 2.81218 -0.300517 -0.00973546 0.953725
7.42128 20.732 2.79981 -0.296104 -0.0140628 0.955052
7.41669 19.6695 2.77442 -0.27158 -0.0327657 0.961858
7.38676 18.5426 2.72544 -0.253612 -0.0444079 0.966286
7.40256 17.5388 2.68288 -0.240825 -0.0508467 0.969236
7.39421 16.4461 2.62176 -0.222646 -0.0427062 0.973938
7.39831 15.4467 2.57967 -0.202161 -0.0428748 0.978411
7.40093 14.3774 2.53125 -0.204712 -0.0426247 0.977894
7.39662 13.3365 2.48925 -0.197471 -0.036046 0.979646
7.38975 12.3004 2.45453 -0.18553 -0.0307857 0.982156
7.40122 11.2578 2.42309 -0.189937 -0.0323847 0.981262
7.41505 10.1806 2.3872 -0.18965 -0.0373005 0.981143
7.4169 9.07365 2.33844 -0.194455 -0.0457919 0.979842
7.41666 7.96931 2.26998 -0.187708 -0.0678836 0.979876
7.3977 6.88822 2.15885 -0.191699 -0.130841 0.972673
7.406 5.88121 2.00622 -0.180002 -0.15544 0.971307
7.41006 4.88233 1.83971 -0.176319 -0.164785 0.970442
7.40227 3.89758 1.65269 -0.185676 -0.202423 0.961535
7.39774 2.74382 1.32199 -0.169296 -0.297701 0.939528
7.41301 1.64586 0.964747 -0.170293 -0.314367 0.933897
7.3518 0.662254 0.615904 -0.1647 -0.328586 0.930003
6.3273 0.570728 0.40664 -0.151322 -0.333712 0.93045
5.24911 0.56581 0.278206 -0.082467 -0.329592 0.940515
4.18671 0.562982 0.211484 -0.00406018 -0.303303 0.952872
3.14947 0.575055 0.243409 0.0719775 -0.320662 0.944455
2.09588 0.560303 0.330292 0.118111 -0.326814 0.93763
1.08138 0.579696 0.493559 0.160046 -0.326322 0.93161
0.592523 1.34933 0.843265 0.160911 -0.317122 0.934634
0.589729 2.44697 1.20817 0.165968 -0.306426 0.937314
0.581699 3.5515 1.54399 0.175386 -0.249235 0.952417
0.576327 4.75976 1.80641 0.171568 -0.180954 0.9684
0.587698 5.76627 1.98564 0.178594 -0.169338 0.969241
0.584753 6.76344 2.15284 0.199289 -0.138049 0.970164
0.595295 7.9675 2.28868 0.206206 -0.0881578 0.974529
0.572337 8.96321 2.38041 0.207089 -0.0834277 0.974758
0.576996 10.0279 2.46312 0.220112 -0.0705202 0.972915
0.596655 11.055 2.51868 0.238289 -0.0444124 0.970178
0.589841 12.0706 2.56407 0.248932 -0.0412884 0.967638
0.568681 13.1481 2.61643 0.262093 -0.0441355 0.964032
0.586597 14.2268 2.66477 0.266548 -0.0512911 0.962456
0.585265 15.3162 2.72664 0.268712 -0.0566739 0.961552
0.573203 16.369 2.78793 0.269633 -0.0473143 0.9618
0.58427 17.4992 2.8583 0.297368 -0.073418 0.951936
0.556103 18.5111 2.95355 0.324507 -0.0825374 0.942275
0.575725 19.5846 3.02673 0.353378 -0.0482804 0.934234
0.553586 20.6556 3.08668 0.37525 -0.0362455 0.926127
0.556748 21.6996 3.12413 0.396605 -0.0329624 0.917387
0.535966 22.8344 3.16875 0.385979 -0.0193219 0.922305
0.563737 23.979 3.16378 0.375854 0.00893862 0.926635
0.541188 24.8158 3.16336 0.370882 0.00236094 0.928643
1.98412 25.6049 2.58851 0.325622 0.00668815 0.945476
2.98144 25.627 2.31081 0.200193 0.0201483 0.979549
3.99474 25.6393 2.18429 0.0757428 -0.0161254 0.996997
5.02566 25.6355 2.21343 -0.130317 0.0458623 0.990411
5.78471 25.6256 2.36144 -0.218897 -0.000525413 0.975748
5.9012 24.6882 2.39249 -0.230992 -0.0140206 0.972855
4.76691 24.6989 2.2033 -0.102916 -0.00688141 0.994666
3.72014 24.6959 2.20826 0.102491 -0.0218685 0.994493
2.73429 24.687 2.38295 0.257033 0.00201629 0.966401
2.2163 24.6788 2.53281 0.311443 -0.00204109 0.950263
2.18122 23.7512 2.53146 0.348995 -0.00983538 0.937073
3.14822 23.7576 2.27249 0.193664 -0.0431801 0.980117
4.19802 23.7611 2.18682 0.0047014 0.0179826 0.999827
5.20418 23.7606 2.25688 -0.118378 -0.0179246 0.992807
5.845 23.7574 2.3739 -0.2254 -0.00577738 0.974249
5.8906 22.8301 2.37776 -0.241216 0.00733261 0.970444
4.81862 22.8334 2.21112 -0.110489 -0.00224026 0.993875
3.7522 22.832 2.2108 0.049909 -0.00459602 0.998743
2.56976 22.8249 2.39636 0.217517 -0.00576325 0.976039
2.01082 22.8193 2.58545 0.340991 -0.0367791 0.939347
2.0426 21.8913 2.55087 0.304832 -0.0294424 0.951951
3.02662 21.8989 2.30073 0.173663 -0.00411487 0.984796
4.16603 21.9048 2.18007 0.00935146 0.00550109 0.999941
5.2573 21.904 2.26301 -0.145601 0.0192144 0.989157
5.80536 21.9037 2.35879 -0.198511 -0.00594973 0.980081
5.74351 20.9794 2.34487 -0.204657 0.0158498 0.978705
4.67899 20.9805 2.19424 -0.0766492 -0.0136443 0.996965
3.5534 20.9752 2.21553 0.114295 -0.0615752 0.991537
2.49106 20.9696 2.41128 0.230936 -0.00931628 0.972924
2.01084 20.9638 2.54141 0.327598 -0.010774 0.944756
2.0445 20.0413 2.52168 0.311516 -0.0324891 0.949685
3.11807 20.0523 2.25839 0.134838 -0.0193984 0.990678
4.12987 20.0558 2.18474 0.0182886 0.000934311 0.999832
5.1468 20.0572 2.24035 -0.114616 0.038963 0.992645
5.93151 20.0566 2.37117 -0.217812 -0.00960428 0.975944
5.91593 19.1375 2.36669 -0.239896 -0.00970137 0.97075
4.86268 19.1396 2.20125 -0.0884407 -0.0236717 0.9958
3.76387 19.1364 2.18412 0.054553 -0.0238442 0.998226
2.67409 19.1295 2.32759 0.209044 -0.0241618 0.977608
2.12943 19.1233 2.45977 0.286125 -0.0285911 0.957766
2.18355 18.2082 2.42889 0.225773 -0.0297839 0.973724
3.27739 18.2187 2.22557 0.13379 -0.00870882 0.990971
4.3193 18.223 2.1636 -0.000753593 0.0110873 0.999938
5.51493 18.2228 2.28916 -0.148781 -0.00886748 0.98883
5.81845 18.2217 2.33937 -0.202253 0.00136468 0.979332
5.82033 17.3083 2.3227 -0.177183 -0.012902 0.984093
4.72283 17.3097 2.17157 -0.085995 -0.0222017 0.996048
3.595 17.3065 2.18012 0.0945646 -0.0367211 0.994841
2.43397 17.298 2.34807 0.176918 -0.0292144 0.983792
2.15267 17.2948 2.4028 0.194456 -0.0325063 0.980373
2.19981 16.3857 2.36024 0.219728 -0.0250489 0.975239
3.29041 16.3948 2.19334 0.0946369 -0.0243187 0.995215
4.30329 16.3983 2.15643 -0.0226221 -0.0092622 0.999701
5.34706 16.3982 2.23378 -0.124251 -0.0196126 0.992057
5.81308 16.397 2.30606 -0.171278 -0.0171041 0.985074
5.80869 15.4885 2.28089 -0.161434 -0.032236 0.986357
4.76847 15.4905 2.17097 -0.0729069 -0.0059144 0.997321
3.75016 15.4897 2.14756 0.0267289 -0.00583246 0.999626
2.74436 15.4838 2.23058 0.12487 -0.0337368 0.991599
2.12438 15.4775 2.3406 0.227256 -0.0492109 0.972591
2.24316 14.5726 2.29015 0.165592 -0.0386665 0.985436
3.36199 14.5803 2.15029 0.0971625 -0.031332 0.994775
4.494 14.585 2.12558 -0.0613459 -0.0323417 0.997592
5.59934 14.5825 2.22119 -0.12894 -0.0219364 0.99141
5.86896 14.5814 2.25623 -0.141245 -0.0305087 0.989504
5.80841 13.6768 2.21199 -0.139912 -0.0156561 0.99004
4.80483 13.6787 2.11544 -0.0624258 -0.037056 0.997361
3.77785 13.6773 2.099 0.0179062 -0.0300554 0.999388
2.73515 13.6718 2.18726 0.121929 -0.0272146 0.992166
2.15903 13.6662 2.26596 0.177703 -0.0260148 0.98374
2.13845 12.7614 2.24117 0.171648 -0.0377868 0.984433
3.15945 12.77 2.10981 0.0829244 -0.0395605 0.99577
4.26708 12.7739 2.06755 -0.0281876 -0.0233356 0.99933
5.26698 12.7733 2.12488 -0.112374 -0.0218948 0.993425
5.83878 12.771 2.19753 -0.143936 -0.0251687 0.989267
5.75731 11.8668 2.1564 -0.146855 -0.0293243 0.988723
4.7412 11.8694 2.05932 -0.0348041 -0.0315284 0.998897
3.72732 11.8681 2.04295 0.0249237 -0.0529262 0.998287
2.69906 11.8622 2.12456 0.122903 -0.0392001 0.991644
2.19078 11.8575 2.20037 0.16454 -0.0372765 0.985666
2.14883 10.9537 2.17242 0.159396 -0.0301672 0.986754
3.1431 10.9624 2.04283 0.107908 -0.0497156 0.992917
4.18533 10.9674 1.99552 -0.0322723 -0.0358665 0.998835
5.21123 10.9659 2.07007 -0.104102 -0.023399 0.994291
5.86835 10.9633 2.14215 -0.113612 -0.0229632 0.99326
5.90641 10.0604 2.10907 -0.139317 -0.0444586 0.989249
4.80179 10.0646 1.99405 -0.085052 -0.0537078 0.994928
3.69241 10.0647 1.9626 0.0609671 -0.0686167 0.995778
2.66444 10.0575 2.053 0.124175 -0.0599013 0.990451
2.19285 10.0524 2.11893 0.145995 -0.0619481 0.987344
2.18035 9.15147 2.06573 0.160003 -0.0520758 0.985742
3.27874 9.16297 1.93606 0.0958002 -0.0576251 0.993731
4.3119 9.16671 1.90654 -0.0717396 -0.0439882 0.996453
5.46942 9.16147 2.0085 -0.105737 -0.0654523 0.992238
5.89829 9.15868 2.05954 -0.122995 -0.0673498 0.990119
5.87789 8.25797 2.00823 -0.13277 -0.0601818 0.989318
4.78621 8.26618 1.89999 -0.0731367 -0.0549245 0.995808
3.71193 8.26725 1.86222 0.0195663 -0.0571247 0.998175
2.69389 8.25849 1.94022 0.097185 -0.0610767 0.993391
2.25465 8.25308 1.99261 0.15004 -0.0679081 0.986345
2.1676 7.35463 1.93086 0.131697 -0.0900659 0.98719
3.20782 7.36777 1.83309 0.0794168 -0.0882571 0.992927
4.24244 7.37256 1.80601 -0.0552187 -0.102574 0.993192
5.36759 7.36466 1.88899 -0.0962088 -0.0960256 0.990718
5.87597 7.35907 1.94343 -0.132213 -0.0840185 0.987654
5.8608 6.46652 1.82906 -0.118747 -0.143041 0.982567
4.82531 6.47954 1.72961 -0.0874698 -0.139176 0.986397
3.76621 6.48398 1.68801 0.0156846 -0.163567 0.986408
2.63027 6.47028 1.77244 0.101898 -0.150601 0.983329
2.16737 6.46218 1.82281 0.11919 -0.136855 0.983394
2.24539 5.57758 1.66606 0.123442 -0.164686 0.978591
3.32791 5.59466 1.57465 0.0550043 -0.155277 0.986338
4.39528 5.59817 1.56039 -0.0519216 -0.155541 0.986464
5.54334 5.58366 1.65129 -0.100342 -0.165639 0.981068
5.88386 5.57772 1.68717 -0.110273 -0.15579 0.981616
5.88577 4.68943 1.54274 -0.139315 -0.186969 0.972437
4.79244 4.70977 1.44053 -0.0732739 -0.170965 0.982549
3.75771 4.71679 1.39969 0.0326885 -0.158664 0.986791
2.72728 4.70246 1.46926 0.0887966 -0.176045 0.980369
2.21739 4.69181 1.51976 0.117783 -0.190485 0.974599
2.14724 3.81204 1.34328 0.112535 -0.219367 0.96913
3.18316 3.83264 1.25989 0.0685191 -0.230767 0.970593
4.25476 3.83798 1.24002 -0.0228554 -0.203197 0.978871
5.37655 3.82128 1.31233 -0.0808076 -0.239842 0.967443
5.76736 3.8123 1.35013 -0.099306 -0.21735 0.971029
5.8459 2.94541 1.117 -0.128422 -0.269654 0.954356
4.77286 2.9711 1.02375 -0.0739334 -0.2895 0.954318
3.74611 2.97975 0.992087 0.0340515 -0.284867 0.957962
2.60751 2.95938 1.06214 0.0859713 -0.29207 0.952525
2.118 2.94615 1.10843 0.119344 -0.287028 0.950459
2.34617 2.09503 0.822329 0.0996176 -0.299323 0.948937
3.45371 2.12274 0.735387 0.063121 -0.308126 0.949249
4.48738 2.12275 0.736247 -0.0490566 -0.309268 0.949709
5.61986 2.09525 0.824733 -0.11406 -0.297583 0.947858
5.96952 26.5631 2.41927 -0.303141 -0.0604273 0.951028
4.88612 26.5951 2.22259 -0.137354 -0.0619155 0.988585
3.78357 26.592 2.21676 0.0451457 0.0101261 0.998929
2.65178 26.562 2.37025 0.295892 -0.0340521 0.954614
2.09974 26.5399 2.56721 0.368858 -0.0457191 0.928361
2.61976 27.5225 2.40984 0.396832 -0.0362821 0.917174
3.65354 27.5671 2.17039 -0.0848439 0.0914259 0.992191
4.73152 27.5687 2.27298 -0.15378 -0.0525811 0.986705
5.71681 27.5291 2.45967 -0.236266 -0.132764 0.962576
5.75198 27.5269 2.468 -0.236266 -0.132765 0.962576
4.89062 28.5547 2.32598 -0.258327 -0.00350032 0.966051
3.89941 28.5923 2.15403 0.0522602 -0.230112 0.97176
3.6773 28.574 2.2356 0.36419 -0.258657 0.894686
3.6551 28.5715 2.24393 0.364189 -0.258657 0.894686
