1.47871 27.7102 2.45665 0.520167 -0.167406 0.837497
1.9967 28.7018 2.31682 0.551249 -0.203162 0.807761
2.70239 29.4725 2.26221 0.234277 -0.27905 0.93126
3.54934 29.9979 2.18844 0.48269 -0.455164 0.748222
4.5572 30.2496 2.11672 0.0575529 -0.690411 0.721124
5.37285 29.7252 2.28756 -0.520024 -0.392277 0.757701
6.19684 28.9492 2.36694 -0.470854 -0.368054 0.797693
6.53005 27.9464 2.30963 -0.40381 -0.123048 0.906528
6.4823 26.9532 2.1656 -0.35487 -0.0996966 0.929564
6.44975 25.8239 2.09899 -0.289437 -0.0128998 0.957003
6.43653 24.8001 2.08454 -0.281503 0.0100969 0.959507
6.43387 23.7549 2.0823 -0.267574 -0.00551222 0.963503
6.40341 22.6758 2.06984 -0.25892 0.003352 0.965893
6.42276 21.6622 2.07834 -0.269513 0.00139099 0.962996
6.39277 20.6121 2.06241 -0.259068 -0.0105858 0.965721
6.40295 19.5888 2.05696 -0.252795 -0.0125838 0.967409
6.41379 18.583 2.04204 -0.229667 -0.010747 0.973204
6.41628 17.4412 2.00744 -0.233635 -0.0259192 0.971979
6.39813 16.2517 1.96881 -0.19501 -0.0200352 0.980597
6.38372 15.2208 1.93535 -0.179371 -0.037765 0.983056
6.3916 14.1887 1.89136 -0.17016 -0.0335663 0.98465
6.37505 13.1291 1.85897 -0.181021 -0.0291517 0.983047
6.38788 11.9314 1.82866 -0.168376 -0.0253761 0.985396
6.40156 10.8392 1.79451 -0.153958 -0.0401007 0.987263
6.38172 9.63631 1.74305 -0.165797 -0.0465572 0.985051
6.39414 8.48865 1.68105 -0.175293 -0.0525479 0.983113
6.40911 7.36464 1.59595 -0.177436 -0.0982909 0.979212
6.39431 6.34414 1.46796 -0.168126 -0.13906 0.975908
6.39479 5.29713 1.29911 -0.161279 -0.164676 0.973073
6.36932 4.27646 1.09391 -0.151041 -0.219569 0.96383
6.36687 3.25448 0.832268 -0.165128 -0.256037 0.952456
6.14557 2.46778 0.563868 -0.150284 -0.294103 0.943875
5.1049 2.68567 0.517895 -0.078658 -0.294582 0.952377
4.09516 2.84828 0.50033 -0.0473556 -0.305802 0.950872
3.0919 2.75656 0.515905 0.0744021 -0.298562 0.951486
2.10374 2.54475 0.540337 0.111112 -0.280442 0.953226
1.62388 2.99415 0.739018 0.18249 -0.269405 0.945578
1.63679 4.07998 1.02671 0.177207 -0.230165 0.956881
1.61747 5.11633 1.25447 0.162348 -0.179321 0.970292
1.61324 6.15613 1.42982 0.18247 -0.149482 0.971782
1.61089 7.1795 1.5675 0.158052 -0.118376 0.980271
1.58608 8.17471 1.66874 0.19153 -0.0848722 0.977808
1.57333 9.29459 1.75737 0.204759 -0.066688 0.976538
1.59169 10.3179 1.81737 0.190768 -0.0501948 0.980351
1.6119 11.3518 1.85998 0.213648 -0.0291356 0.976476
1.58516 12.3979 1.90047 0.221592 -0.0250279 0.974787
1.58415 13.4586 1.9349 0.223777 -0.041091 0.973764
1.57865 14.5372 1.97928 0.233427 -0.0404352 0.971498
1.57131 15.6381 2.04056 0.243612 -0.0429671 0.968921
1.5688 16.7391 2.08726 0.243663 -0.0436891 0.968849
1.56884 17.7828 2.13623 0.281515 -0.0432812 0.958541
1.56301 18.8523 2.1815 0.290879 -0.0524472 0.955056
1.55651 19.8654 2.23807 0.322075 -0.03463 0.94608
1.52761 20.8912 2.27021 0.323703 -0.0155134 0.946032
1.52782 21.9548 2.28935 0.359145 -0.0160922 0.933111
1.52015 22.974 2.32022 0.363917 -0.0157479 0.931292
1.52748 24.0188 2.32079 0.354979 -0.0029591 0.934797
1.53546 25.0743 2.30855 0.355967 0.0196597 0.934253
1.5189 26.1086 2.30992 0.368777 -0.0256469 0.929164
1.48668 27.2198 2.38445 0.439057 -0.10471 0.892337
1.47929 27.5447 2.42321 0.484652 -0.125808 0.863491
0.561325 27.4412 2.90213 0.463272 -0.220584 0.8583
0.564725 26.4009 2.71051 0.386507 -0.0602861 0.920028
0.582839 25.3912 2.67932 0.37726 -0.00121437 0.926082
0.568031 24.3443 2.697 0.372545 0.0113483 0.927945
0.55531 23.2028 2.70899 0.379578 -0.00666645 0.925136
0.572392 22.184 2.67846 0.386727 -0.0348041 0.921537
0.560754 21.1803 2.64488 0.364402 -0.0259588 0.93088
0.589798 20.1339 2.59464 0.3506 -0.0397471 0.935675
0.588795 19.0865 2.53393 0.33641 -0.0637771 0.939547
0.596761 17.8891 2.44382 0.306699 -0.0679777 0.949354
0.582535 16.6966 2.36748 0.282641 -0.0579683 0.957446
0.583306 15.5177 2.30258 0.274493 -0.0557909 0.959969
0.591002 14.3459 2.2334 0.271187 -0.055467 0.960927
0.562462 13.2417 2.18442 0.254135 -0.0400205 0.96634
0.583617 12.1582 2.1329 0.249191 -0.0371171 0.967743
0.588236 11.092 2.09052 0.238424 -0.0396204 0.970353
0.582321 10.082 2.03586 0.23019 -0.0578612 0.971424
0.581763 8.98111 1.94714 0.21245 -0.0767362 0.974154
0.598894 7.88839 1.84793 0.20554 -0.0856096 0.974897
0.595385 6.72254 1.71175 0.193485 -0.149148 0.9697
0.602107 5.72051 1.54332 0.177279 -0.172834 0.968856
0.610241 4.60039 1.33096 0.180414 -0.202149 0.962593
0.643162 3.46265 1.06251 0.175037 -0.262147 0.948835
0.602597 2.43687 0.755549 0.168016 -0.304533 0.937503
0.598184 1.41383 0.409905 0.157848 -0.323357 0.933018
1.23528 1.16558 0.216614 0.15302 -0.325867 0.932948
2.24336 1.56301 0.211242 0.0916422 -0.313661 0.945102
3.39558 1.83613 0.197828 0.0738934 -0.307148 0.948789
4.40778 1.8649 0.194771 -0.0588856 -0.31363 0.947551
5.41102 1.61615 0.200777 -0.0916533 -0.316419 0.944181
6.38977 1.31374 0.219693 -0.157936 -0.32637 0.931943
7.30625 0.896595 0.231831 -0.16428 -0.326881 0.930678
7.40928 1.89046 0.595072 -0.161554 -0.319461 0.933726
7.40844 3.02012 0.962322 -0.17365 -0.290435 0.940962
7.37852 4.01806 1.22473 -0.168443 -0.220386 0.96075
7.39287 5.06437 1.43577 -0.177318 -0.174108 0.96863
7.40191 6.05105 1.60568 -0.17849 -0.160657 0.970737
7.3999 7.06952 1.75505 -0.193705 -0.126675 0.972847
7.41117 8.14867 1.85181 -0.186075 -0.0655067 0.980349
7.39403 9.19334 1.91178 -0.190344 -0.0445262 0.980707
7.40556 10.1934 1.95777 -0.188572 -0.0365233 0.981379
7.39877 11.22 1.99333 -0.187849 -0.0316127 0.981689
7.39056 12.2512 2.02514 -0.187032 -0.0314784 0.981849
7.38808 13.3565 2.06081 -0.195728 -0.0321143 0.980132
7.39307 14.5199 2.10643 -0.203709 -0.0430493 0.978085
7.39773 15.6115 2.15493 -0.201614 -0.0415816 0.978582
7.39927 16.6265 2.19764 -0.233731 -0.0522528 0.970896
7.40473 17.7284 2.25927 -0.241697 -0.0450442 0.969306
7.41537 18.9466 2.3108 -0.255752 -0.0357444 0.966063
7.39996 19.9682 2.33972 -0.275479 -0.0273851 0.960917
7.40347 21.0328 2.35739 -0.288408 -0.0128672 0.95742
7.38953 22.0343 2.3595 -0.290057 -0.00311058 0.956999
7.42113 23.0964 2.37037 -0.292975 -0.00199743 0.956118
7.41833 24.1566 2.37266 -0.290665 -0.010253 0.956768
7.41359 25.2836 2.39851 -0.320575 -0.0401448 0.946372
7.4388 26.3668 2.46042 -0.362637 -0.0643075 0.929709
7.43824 27.3635 2.62299 -0.432434 -0.231776 0.871361
7.45846 28.3213 2.92827 -0.489434 -0.290972 0.822056
6.95395 29.3189 3.07318 -0.534749 -0.425334 0.730161
6.09063 30.11 3.03849 -0.511202 -0.533409 0.673741
5.28834 30.6957 2.92943 -0.53402 -0.703248 0.420832
4.20536 30.8862 2.96145 0.0868247 -0.84245 0.531732
3.19795 30.7017 2.89566 0.0659764 -0.86894 0.490501
2.37322 30.1576 2.96441 0.615037 -0.641943 0.457055
1.67334 29.4156 2.99939 0.696466 -0.531662 0.481945
0.981092 28.7048 3.11672 0.605215 -0.489511 0.627769
0.542493 27.8483 3.0342 0.466328 -0.261803 0.844984
0.55638 27.541 2.92985 0.47354 -0.241239 0.84659
2.03587 27.2447 2.12392 0.408275 -0.072001 0.910015
3.00989 27.3111 1.7825 0.255259 0.0766251 0.963832
4.09235 27.3496 1.70863 -0.0389485 0.0869359 0.995452
5.12524 27.3363 1.83891 -0.182573 -0.0171221 0.983043
5.99089 27.2842 2.03446 -0.262541 -0.0760843 0.961917
5.96443 26.3433 1.97121 -0.275742 -0.0518278 0.959833
4.98481 26.3683 1.76294 -0.10951 -0.0289267 0.993565
3.87734 26.3726 1.75292 0.0325482 0.0312785 0.998981
2.86255 26.3466 1.87033 0.203311 0.0253942 0.978785
2.071 26.3166 2.09923 0.32999 0.0120573 0.943907
2.03222 25.3935 2.12912 0.323464 0.0120826 0.946163
3.01632 25.416 1.85834 0.166146 0.0343694 0.985502
4.12109 25.4308 1.73287 0.0354449 0.00225557 0.999369
5.21385 25.4266 1.80572 -0.163209 0.00862214 0.986554
5.76497 25.4163 1.91292 -0.21692 0.0420881 0.975282
5.91774 24.4926 1.95457 -0.220096 -0.00871271 0.975439
4.81651 24.5009 1.76375 -0.0875457 0.0393231 0.995384
3.75168 24.4977 1.75103 0.109698 0.0220136 0.993721
2.74039 24.4874 1.9251 0.249512 0.00600921 0.968353
2.04588 24.477 2.12635 0.326161 0.0233436 0.945026
2.24276 23.5651 2.06454 0.326713 0.00827434 0.945088
3.24201 23.5721 1.81799 0.161263 0.0262421 0.986562
4.35248 23.5772 1.74735 -0.0240473 0.0331141 0.999162
5.54636 23.5766 1.86958 -0.19216 -0.015724 0.981238
5.84432 23.575 1.92983 -0.246553 -0.00815834 0.969095
5.82272 22.6596 1.92628 -0.223424 0.0241569 0.974422
4.83297 22.6599 1.78141 -0.0728076 0.00609916 0.997327
3.56511 22.6585 1.77799 0.0731797 0.024202 0.997025
2.51466 22.6526 1.97307 0.251675 -0.0166571 0.967668
2.02148 22.6486 2.12906 0.311741 -0.00102072 0.950167
2.23342 21.737 2.04946 0.276297 -0.0236554 0.960781
3.23018 21.7437 1.82189 0.189751 -0.0135533 0.981739
4.27363 21.7453 1.74382 0.0297713 0.00579215 0.99954
5.27164 21.7481 1.8192 -0.124578 -0.0216851 0.991973
5.91127 21.7475 1.942 -0.239406 -0.00822606 0.970885
5.84475 20.8375 1.93145 -0.221715 -0.0162989 0.974975
4.83674 20.8377 1.76652 -0.0851486 -0.0106714 0.996311
3.78853 20.8355 1.75871 0.098213 -0.0241311 0.994873
2.75616 20.8309 1.89812 0.222227 -0.0328059 0.974443
2.22118 20.8258 2.03847 0.288193 -0.048272 0.956355
2.20108 19.9177 2.03163 0.301872 -0.0242582 0.95304
3.28154 19.9268 1.79954 0.151924 -0.0267506 0.98803
4.28844 19.93 1.74722 0.0147505 -0.0087611 0.999853
5.31021 19.9307 1.81786 -0.132585 -0.014924 0.991059
5.71529 19.9302 1.8951 -0.221525 0.00433725 0.975145
5.8184 19.0245 1.91684 -0.203565 -0.0109188 0.979
4.82484 19.0266 1.75765 -0.124441 0.0204646 0.992016
3.6912 19.025 1.7546 0.063095 -0.0116383 0.99794
2.62638 19.0168 1.90826 0.193962 -0.00179049 0.981007
2.12829 19.0114 2.0247 0.267567 -0.0453543 0.962471
2.28957 18.11 1.96753 0.206959 -0.0216223 0.978111
3.52515 18.1203 1.76431 0.132346 0.00274251 0.9912
4.57611 18.1243 1.75006 -0.0561412 -0.0171706 0.998275
5.74729 18.1224 1.89848 -0.177842 -0.000589822 0.984059
5.85582 18.122 1.91809 -0.174224 -0.0136116 0.984612
5.69421 17.2231 1.86627 -0.151146 -0.0170256 0.988365
4.59569 17.2247 1.72728 -0.0591848 -0.0273662 0.997872
3.55576 17.2203 1.74894 0.100437 -0.0335697 0.994377
2.52542 17.2134 1.89104 0.161459 -0.029146 0.986449
2.20372 17.21 1.95227 0.212722 -0.0245491 0.976804
2.1585 16.3125 1.92914 0.229269 -0.0221836 0.97311
3.24259 16.321 1.76489 0.0971061 -0.0436722 0.994315
4.26029 16.3259 1.72368 -0.0216909 -0.00741617 0.999737
5.4583 16.3245 1.81041 -0.108611 -0.00278169 0.99408
5.85887 16.3228 1.87567 -0.165523 -0.0106712 0.986148
5.81927 15.4271 1.84629 -0.16598 -0.0250663 0.98581
4.76797 15.4277 1.7333 -0.0752248 -0.014853 0.997056
3.57152 15.4252 1.72243 0.0401555 -0.0483191 0.998024
2.5566 15.4206 1.83012 0.138576 -0.0257612 0.990017
2.10589 15.4168 1.9038 0.192876 -0.0440192 0.980235
2.15929 14.5223 1.86058 0.146945 -0.0467428 0.98804
3.15657 14.5297 1.73483 0.0995114 -0.0114771 0.99497
4.28188 14.534 1.69104 -0.0060578 -0.0295265 0.999546
5.40311 14.5337 1.76872 -0.0952514 -0.0278056 0.995065
5.86296 14.5325 1.81823 -0.111371 -0.0246678 0.993473
5.7523 13.6382 1.77658 -0.133954 -0.0410127 0.990138
4.64069 13.6397 1.68055 -0.0428879 -0.0349768 0.998467
3.58538 13.6379 1.67829 0.0627243 -0.0396454 0.997243
2.58937 13.6322 1.76983 0.121078 -0.0312139 0.992152
2.10789 13.6279 1.83735 0.157709 -0.0187283 0.987308
2.27547 12.7367 1.78244 0.17443 -0.0248148 0.984357
3.32581 12.7445 1.65731 0.0749665 -0.0264954 0.996834
4.37131 12.7469 1.63866 -0.0304115 -0.0185043 0.999366
5.43385 12.7458 1.71249 -0.103451 -0.037429 0.99393
5.73311 12.7447 1.75124 -0.138142 -0.0366189 0.989735
5.69484 11.8531 1.71987 -0.126426 -0.0370152 0.991285
4.53486 11.8557 1.61873 -0.0476785 -0.0461895 0.997794
3.48935 11.8545 1.6149 0.0258711 -0.027653 0.999283
2.37631 11.8454 1.73708 0.149765 -0.0506943 0.987421
2.25684 11.8441 1.757 0.16483 -0.0582519 0.9846
2.17269 10.9517 1.74075 0.15294 -0.041877 0.987348
3.24122 10.9617 1.60474 0.0695479 -0.047079 0.996467
4.34984 10.9658 1.58462 -0.0490156 -0.0544466 0.997313
5.35953 10.9632 1.66066 -0.0974564 -0.0316928 0.994735
5.85585 10.9612 1.71876 -0.13412 -0.00950603 0.99092
5.67596 10.0717 1.66128 -0.108883 -0.0426572 0.993139
4.6102 10.0758 1.5588 -0.0755701 -0.047002 0.996032
3.52726 10.0746 1.54164 0.0511889 -0.0634921 0.996669
2.49577 10.0659 1.64724 0.121317 -0.0513797 0.991283
2.24322 10.0632 1.6824 0.159337 -0.0749822 0.984373
2.129 9.17291 1.64612 0.164746 -0.0579632 0.984631
3.13628 9.18383 1.52749 0.0908463 -0.0635846 0.993833
4.20033 9.18832 1.4922 -0.0215561 -0.0617178 0.997861
5.31402 9.18501 1.57132 -0.100163 -0.0604992 0.99313
5.83086 9.18154 1.63086 -0.146135 -0.0728623 0.986578
5.88274 8.2922 1.58789 -0.135248 -0.0774351 0.987781
4.81624 8.30043 1.47803 -0.0835408 -0.0586886 0.994775
3.80128 8.30192 1.43775 0.0325331 -0.0524652 0.998093
2.62626 8.29224 1.52746 0.10632 -0.0693787 0.991909
2.31458 8.28856 1.56093 0.13467 -0.0648424 0.988767
2.17432 7.40203 1.50637 0.108756 -0.105674 0.988436
3.16973 7.4146 1.40994 0.0895496 -0.0911207 0.991805
4.21324 7.4202 1.37277 -0.02648 -0.0917729 0.995428
5.30282 7.41235 1.45611 -0.0842189 -0.0892262 0.992444
5.8188 7.40636 1.5124 -0.117318 -0.099545 0.988093
5.66788 6.52719 1.38824 -0.117395 -0.129611 0.984591
4.55954 6.54071 1.28657 -0.0868017 -0.143437 0.985845
3.47265 6.54033 1.28082 0.0654851 -0.141424 0.987781
2.33046 6.52484 1.37656 0.0937781 -0.142997 0.98527
2.29843 6.52434 1.37973 0.130187 -0.140509 0.981483
2.14486 5.64463 1.26663 0.117528 -0.161676 0.97982
3.15983 5.66327 1.16508 0.0856343 -0.161844 0.983094
4.35783 5.66944 1.13648 -0.03332 -0.188879 0.981435
5.41445 5.65451 1.22783 -0.0995208 -0.154569 0.982957
5.67313 5.6498 1.25597 -0.113607 -0.157058 0.981033
5.86317 4.77192 1.12485 -0.104928 -0.17686 0.978627
4.83496 4.79227 1.02203 -0.0849889 -0.181135 0.979779
3.68855 4.79812 0.988685 0.0169791 -0.191869 0.981274
2.59909 4.78172 1.06647 0.101024 -0.17891 0.978665
2.20998 4.77431 1.10152 0.111793 -0.188652 0.97566
2.20544 3.91081 0.90605 0.0920412 -0.258167 0.961706
3.21399 3.92874 0.833194 0.0676879 -0.235905 0.969416
4.29857 3.93492 0.809686 -0.0441949 -0.209008 0.976915
5.38836 3.91742 0.88587 -0.0892925 -0.237355 0.96731
5.78047 3.90804 0.92547 -0.114514 -0.238254 0.964428
5.937 28.2576 2.10542 -0.32595 -0.10935 0.939042
4.78889 28.3649 1.74875 -0.280184 0.127959 0.95138
3.56658 28.3496 1.6897 0.240617 -0.0477464 0.969445
2.584 28.2638 1.99948 0.374883 -0.133747 0.917374
2.24992 28.2237 2.12864 0.395359 -0.149621 0.906258
3.45238 29.3604 1.97135 0.347464 -0.300542 0.888225
4.45519 29.4634 1.64171 -0.369945 0.0662111 0.926691
5.02965 29.3859 1.90305 -0.545982 -0.190905 0.815757
5.13686 29.3591 1.97587 -0.586084 -0.254026 0.7694
