1.45098 27.6636 2.36381 0.518806 -0.148192 0.84195
1.81448 28.6284 2.30983 0.537002 -0.161406 0.827995
2.46868 29.4564 2.20877 0.189381 -0.452568 0.871388
3.27353 30.0426 2.17429 0.345918 -0.37149 0.857759
4.24632 30.3908 2.08432 0.286359 -0.668163 0.682203
5.16514 30.0978 2.1485 -0.602678 -0.335933 0.723028
5.99388 29.2975 2.32905 -0.477006 -0.403581 0.780761
6.55014 28.4251 2.27322 -0.457922 -0.222159 0.860786
6.48778 27.1792 2.09724 -0.330451 -0.10647 0.937799
6.48773 26.148 2.02897 -0.307771 -0.036881 0.950746
6.43149 25.0101 1.9918 -0.2876 -0.0055219 0.957734
6.43413 23.9356 1.99517 -0.268411 -0.0185956 0.963125
6.42284 22.8771 1.98359 -0.243424 -0.000714547 0.969896
6.40419 21.769 1.98446 -0.260406 0.0012235 0.965488
6.43314 20.7322 1.98765 -0.257316 -0.00899117 0.966221
6.43755 19.6885 1.97935 -0.23669 -0.0139298 0.971485
6.39751 18.6106 1.95057 -0.230955 -0.0170021 0.972815
6.38264 17.4442 1.91428 -0.203951 -0.0295437 0.978535
6.37688 16.3611 1.88206 -0.179422 -0.0176323 0.983605
6.37789 15.3271 1.85289 -0.188181 -0.0391818 0.981336
6.3814 14.207 1.80863 -0.17533 -0.0362003 0.983806
6.36012 13.1915 1.77211 -0.181835 -0.0283 0.982922
6.37958 11.9987 1.74467 -0.16675 -0.0222746 0.985748
6.38155 10.8242 1.70305 -0.171122 -0.0319357 0.984732
6.38536 9.80543 1.66486 -0.172184 -0.0385592 0.984303
6.38566 8.80298 1.6144 -0.173639 -0.055496 0.983245
6.39763 7.74603 1.5392 -0.191609 -0.0923134 0.97712
6.39561 6.62204 1.41349 -0.149564 -0.128656 0.980346
6.38267 5.50445 1.24436 -0.15795 -0.156566 0.974954
6.35827 4.38837 1.0308 -0.162566 -0.218807 0.962131
6.36248 3.23813 0.732089 -0.185665 -0.261587 0.947121
5.88298 2.79096 0.534816 -0.116948 -0.282865 0.951754
4.71912 3.01777 0.50486 -0.0559506 -0.280106 0.958337
3.72293 3.10547 0.503058 0.0353783 -0.29735 0.954095
2.66715 2.91984 0.510332 0.0878755 -0.286278 0.954108
1.72571 2.77797 0.574427 0.158755 -0.275472 0.948052
1.64524 3.92778 0.902279 0.154058 -0.251504 0.955344
1.62875 4.98855 1.14262 0.163532 -0.185394 0.968916
1.62771 6.03856 1.32151 0.176569 -0.153065 0.972314
1.60812 7.09055 1.46907 0.197281 -0.114172 0.973559
1.60654 8.13692 1.57488 0.182511 -0.0774829 0.980146
1.60204 9.31349 1.66737 0.20339 -0.0728057 0.976366
1.61607 10.3313 1.72701 0.186236 -0.047772 0.981197
1.61701 11.4229 1.77473 0.213157 -0.0323767 0.976481
1.63283 12.4622 1.80587 0.224784 -0.0257202 0.974065
1.59599 13.4827 1.8419 0.200785 -0.0463485 0.978192
1.60273 14.6346 1.89771 0.241246 -0.0474746 0.969246
1.56769 15.773 1.96153 0.248375 -0.0434117 0.967691
1.57092 16.9085 2.00517 0.265125 -0.0382958 0.963386
1.59856 17.9815 2.04983 0.280135 -0.0411371 0.959079
1.5697 19.0289 2.11322 0.303526 -0.0456726 0.951618
1.53123 20.1737 2.16837 0.33284 -0.0261455 0.942621
1.51717 21.2345 2.19096 0.335003 -0.0176648 0.942017
1.54418 22.2396 2.19918 0.359717 -0.0182386 0.932883
1.54864 23.3334 2.22188 0.363347 -0.0093392 0.931607
1.52459 24.3604 2.22828 0.358257 0.0128457 0.933532
1.51128 25.3961 2.21638 0.354993 0.0155765 0.934725
1.50067 26.5054 2.23617 0.391612 -0.0404823 0.91924
1.45449 27.4713 2.32781 0.499887 -0.115358 0.857398
0.531608 27.2905 2.77546 0.43842 -0.227401 0.86903
0.559708 28.2649 3.07275 0.465567 -0.322683 0.824089
1.32456 29.1836 3.0107 0.607435 -0.48738 0.627283
1.98907 29.9368 2.98175 0.623828 -0.58511 0.515842
2.78104 30.5793 2.88343 0.613955 -0.620057 0.488455
3.77571 30.9415 2.94333 0.116242 -0.825185 0.552772
4.80554 31.0239 2.9145 -0.267186 -0.836084 0.47914
5.69341 30.5849 2.91978 -0.620324 -0.62952 0.467871
6.50136 29.9027 3.04861 -0.501484 -0.51943 0.691735
7.32178 29.0624 3.05418 -0.571022 -0.445863 0.689304
7.46225 28.0109 2.72099 -0.479573 -0.243139 0.843145
7.43841 26.9345 2.43358 -0.392615 -0.153971 0.906723
7.44638 25.8404 2.34264 -0.334806 -0.0393241 0.941448
7.42055 24.6913 2.28829 -0.307548 -0.0368707 0.950757
7.42515 23.4761 2.28139 -0.290302 -0.000833881 0.956926
7.42293 22.395 2.28129 -0.290532 -0.00193975 0.956855
7.40687 21.3218 2.27087 -0.28672 -0.00933247 0.957968
7.44021 20.2678 2.26545 -0.279718 -0.016761 0.959928
7.40687 19.0865 2.22558 -0.256244 -0.0346864 0.965986
7.40824 18.0692 2.1901 -0.252747 -0.0449938 0.966456
7.40187 17.0066 2.13294 -0.233765 -0.056841 0.97063
7.40306 15.9247 2.08113 -0.208596 -0.0327269 0.977454
7.39496 14.8842 2.03757 -0.200498 -0.0427116 0.978763
7.38493 13.7992 1.98983 -0.200078 -0.0373081 0.979069
7.39595 12.7557 1.95663 -0.188916 -0.0315609 0.981486
7.39611 11.6729 1.92165 -0.187701 -0.0317996 0.981711
7.40121 10.622 1.88737 -0.19024 -0.0346302 0.981127
7.39471 9.54883 1.84357 -0.187799 -0.0428769 0.981269
7.39541 8.51444 1.78793 -0.186823 -0.0620762 0.980412
7.40198 7.39717 1.70208 -0.198651 -0.102426 0.974696
7.4008 6.33755 1.56386 -0.176186 -0.148637 0.973024
7.39393 5.2241 1.37766 -0.174476 -0.164473 0.970821
7.38876 4.18601 1.17792 -0.164503 -0.198561 0.966184
7.39563 3.11378 0.899199 -0.177243 -0.27866 0.943893
7.41499 2.14089 0.590371 -0.16385 -0.311516 0.935985
7.36509 1.18236 0.251161 -0.162816 -0.326672 0.931008
6.43528 1.547 0.220273 -0.143438 -0.322757 0.935438
5.44514 1.87331 0.200432 -0.0934682 -0.315447 0.944329
4.32759 2.13875 0.195085 -0.066355 -0.315327 0.94666
3.28854 2.07535 0.192815 0.0837361 -0.306995 0.94802
2.31599 1.82875 0.201007 0.0920456 -0.310611 0.94607
1.37131 1.48284 0.214936 0.148909 -0.326507 0.933388
0.58737 1.45767 0.335545 0.156556 -0.324203 0.932943
0.619666 2.40686 0.650933 0.164168 -0.302935 0.938764
0.617505 3.36751 0.950864 0.169005 -0.25606 0.951772
0.61416 4.40553 1.20243 0.165199 -0.200653 0.965633
0.618192 5.52674 1.41889 0.168684 -0.176605 0.96972
0.596783 6.56753 1.60326 0.195365 -0.141473 0.970459
0.604274 7.61572 1.73382 0.209207 -0.0936565 0.973368
0.59242 8.6857 1.83299 0.206491 -0.0857962 0.97468
0.597417 9.7238 1.9182 0.212841 -0.0766199 0.974078
0.59178 10.7599 1.98913 0.235368 -0.055773 0.970277
0.603489 11.8431 2.03109 0.237985 -0.0356243 0.970614
0.60213 12.9945 2.07356 0.262656 -0.0419062 0.963956
0.590611 14.2053 2.14036 0.261028 -0.0518047 0.96394
0.583353 15.2225 2.19889 0.272742 -0.0557937 0.960468
0.570837 16.3092 2.26324 0.277767 -0.0545695 0.959097
0.586535 17.5227 2.33381 0.296774 -0.0676281 0.95255
0.591304 18.5266 2.40628 0.333537 -0.0616589 0.940719
0.56724 19.6547 2.4908 0.337861 -0.0579757 0.939409
0.561665 20.6711 2.53905 0.376228 -0.0186925 0.926338
0.558421 21.6863 2.57384 0.382002 -0.0273072 0.923719
0.585789 22.7219 2.59543 0.378275 -0.0281724 0.925237
0.572138 23.7573 2.60917 0.372285 0.00455568 0.928107
0.566514 24.9481 2.59853 0.37066 0.0112574 0.9287
0.56331 25.9662 2.59769 0.386764 -0.0342736 0.921542
0.546689 26.971 2.6954 0.436487 -0.199117 0.8774
0.53998 27.1502 2.73943 0.436895 -0.1992 0.877178
1.94111 27.3757 2.06176 0.423192 -0.068358 0.903458
2.88615 27.4507 1.6889 0.298797 0.0644377 0.952139
3.91329 27.4911 1.5757 -0.0129108 0.109727 0.993878
4.97448 27.4891 1.70853 -0.173109 -0.00249659 0.984899
5.96053 27.4294 1.94057 -0.270336 -0.0592859 0.960939
5.85631 26.4828 1.85366 -0.270226 -0.0443408 0.961775
4.80652 26.5124 1.66057 -0.061022 -0.0236776 0.997856
3.74264 26.5143 1.65188 0.0371856 0.0596204 0.997528
2.65728 26.476 1.81559 0.223518 0.0292244 0.974262
1.98897 26.4473 2.03006 0.352516 0.00586224 0.935787
1.99895 25.5248 2.03988 0.301129 0.00985254 0.953532
2.9803 25.5514 1.76783 0.197996 0.0224101 0.979947
4.00583 25.5679 1.64428 0.0407986 -0.00450963 0.999157
5.00702 25.567 1.67792 -0.141578 0.00884936 0.989888
5.9172 25.5515 1.84743 -0.264669 0.0266639 0.963971
5.81791 24.6311 1.84249 -0.224806 0.00605649 0.974385
4.66192 24.6388 1.65265 -0.0798875 0.037696 0.996091
3.57232 24.6328 1.67743 0.112642 0.021829 0.993396
2.5274 24.6189 1.88943 0.26074 0.00237049 0.965406
2.04644 24.6102 2.03172 0.322145 0.0161187 0.946553
2.18627 23.6984 1.99452 0.326992 -0.00235385 0.945024
3.34203 23.7091 1.70777 0.171659 0.0248368 0.984843
4.41096 23.7133 1.64908 -0.00708355 0.0257832 0.999642
5.43412 23.7166 1.76029 -0.161767 0.0043531 0.986819
5.92215 23.7139 1.85942 -0.216611 -0.0163642 0.976121
5.8122 22.7994 1.83489 -0.222612 0.0134357 0.974814
4.74325 22.7998 1.68109 -0.0845985 -0.00860912 0.996378
3.60081 22.7964 1.68642 0.0646883 0.00385855 0.997898
2.47336 22.7886 1.89868 0.250849 -0.00239351 0.968023
2.03623 22.7847 2.03136 0.315942 -0.0263326 0.948413
2.14413 21.8745 1.99363 0.295046 0.002229 0.955481
3.1775 21.8815 1.74676 0.178893 0.00428958 0.983859
4.3017 21.8853 1.65401 0.0172557 -0.0309199 0.999373
5.38335 21.8889 1.74246 -0.155271 0.0109389 0.987811
5.83721 21.8882 1.83694 -0.22824 0.0208311 0.973382
5.78257 20.9791 1.83139 -0.217849 0.0388393 0.975209
4.75743 20.9784 1.67414 -0.0871811 -0.0125491 0.996113
3.71562 20.9757 1.67296 0.065547 0.0220356 0.997606
2.55872 20.9683 1.8622 0.228369 -0.0253936 0.973243
2.0061 20.9628 2.01976 0.322681 -0.0277163 0.946102
2.04151 20.0543 1.99541 0.305102 -0.00906297 0.952276
3.16278 20.067 1.73049 0.136305 -0.0137292 0.990572
4.28104 20.0714 1.66111 0.00814774 -0.00592204 0.999949
5.28928 20.0724 1.73184 -0.141773 -0.0167431 0.989758
5.78457 20.0719 1.8258 -0.222814 -0.0110347 0.974799
5.87239 19.1671 1.83961 -0.229671 -0.00538044 0.973253
4.8136 19.1691 1.67211 -0.10111 -0.0184746 0.994704
3.66662 19.1667 1.67053 0.0572332 -0.0212981 0.998134
2.61585 19.1581 1.83112 0.205692 -0.00558455 0.978601
2.24574 19.1531 1.91419 0.279613 -0.037975 0.959361
2.18058 18.2526 1.90234 0.225088 -0.00926776 0.974294
3.28423 18.2625 1.70601 0.140284 -0.0119069 0.99004
4.33402 18.2677 1.64431 -0.0418979 -0.0222953 0.998873
5.47489 18.2665 1.76989 -0.15075 -0.0115939 0.988504
5.81221 18.2654 1.82221 -0.182964 -0.00576832 0.983103
5.86628 17.3656 1.81041 -0.177604 -0.0202698 0.983893
4.68814 17.3687 1.65223 -0.10439 -0.0156113 0.994414
3.55825 17.3655 1.66599 0.103363 -0.0211593 0.994419
2.52179 17.3582 1.81198 0.167149 -0.0253153 0.985607
2.08841 17.3535 1.89317 0.192185 -0.0306297 0.980881
2.09194 16.4562 1.86207 0.23068 -0.032748 0.972479
3.14142 16.4654 1.69595 0.10151 -0.0246175 0.99453
4.27706 16.4705 1.64004 -0.0233128 -0.00822745 0.999694
5.36159 16.4705 1.71288 -0.101803 -0.00653989 0.994783
5.80314 16.4687 1.78187 -0.169827 -0.0217597 0.985234
5.76206 15.5726 1.75615 -0.151645 -0.0335629 0.987865
4.65432 15.5734 1.64382 -0.0492207 -0.0138627 0.998692
3.5949 15.5724 1.6401 0.0291539 0.00119101 0.999574
2.57678 15.5659 1.74487 0.148661 -0.0293172 0.988453
2.13585 15.5619 1.81734 0.197415 -0.0462678 0.979228
2.14802 14.669 1.78653 0.177183 -0.0502271 0.982895
3.16507 14.6764 1.65224 0.104962 -0.0169486 0.994332
4.32142 14.6813 1.61528 -0.0190439 -0.0365185 0.999152
5.34242 14.6807 1.6825 -0.0969757 -0.0262239 0.994941
5.83532 14.6788 1.74121 -0.145961 -0.021494 0.989057
5.80851 13.7871 1.70227 -0.129474 -0.0368411 0.990898
4.79013 13.7878 1.61121 -0.0627949 -0.0415809 0.99716
3.75047 13.7863 1.58637 0.0593432 -0.0470331 0.997129
2.67384 13.7815 1.67841 0.10886 -0.0523544 0.992677
2.16884 13.7779 1.74608 0.175046 -0.025851 0.984221
2.22458 12.887 1.70838 0.171989 -0.0264383 0.984744
3.28345 12.8947 1.58126 0.0648483 -0.0505748 0.996613
4.31232 12.8973 1.55355 -0.0268383 -0.0320831 0.999125
5.31732 12.8964 1.61878 -0.102517 -0.03137 0.994237
5.75272 12.8949 1.6708 -0.124702 -0.0194019 0.992004
5.8366 12.0038 1.6569 -0.153175 -0.0142139 0.988097
4.81037 12.0066 1.55432 -0.0597786 -0.014971 0.998099
3.72761 12.0062 1.52858 0.023618 -0.0141929 0.99962
2.54245 11.9989 1.63131 0.127181 -0.0406421 0.991047
2.25002 11.9961 1.67728 0.156428 -0.0543149 0.986195
2.25295 11.1055 1.64683 0.148576 -0.0377922 0.988179
3.30035 11.115 1.51865 0.0715923 -0.0201717 0.99723
4.34474 11.1177 1.50229 -0.0489621 -0.0116624 0.998733
5.40426 11.1154 1.58134 -0.101059 -0.0290334 0.994457
5.6931 11.1142 1.61571 -0.119661 -0.0265519 0.99246
5.77713 10.2251 1.59298 -0.119252 -0.0483568 0.991686
4.7575 10.2292 1.49143 -0.0769794 -0.0530615 0.99562
3.61419 10.2286 1.46204 0.0288674 -0.0512327 0.998269
2.61429 10.2206 1.55545 0.130636 -0.0460553 0.99036
2.16593 10.2156 1.6204 0.158711 -0.0613617 0.985416
2.12923 9.32834 1.57292 0.165611 -0.0548944 0.984662
3.31994 9.34046 1.42982 0.0851435 -0.058018 0.994678
4.40308 9.34333 1.41977 -0.0503334 -0.031331 0.998241
5.5133 9.33866 1.51837 -0.111171 -0.0641656 0.991728
5.78206 9.33687 1.54876 -0.13973 -0.0618454 0.988256
5.83499 8.44898 1.50579 -0.143021 -0.0496519 0.988473
4.777 8.45675 1.39723 -0.0871508 -0.0558093 0.994631
3.67188 8.45719 1.36634 0.03591 -0.0606232 0.997515
2.60244 8.44831 1.4499 0.117997 -0.0498837 0.99176
2.18759 8.443 1.50364 0.143408 -0.0520522 0.988294
2.2336 7.55991 1.4246 0.11564 -0.0816757 0.989928
3.2481 7.57091 1.3358 0.0776001 -0.0662565 0.994781
4.25848 7.57549 1.31141 -0.0232979 -0.077127 0.996749
5.27841 7.56969 1.3782 -0.0779626 -0.0791766 0.993807
5.87105 7.56366 1.4375 -0.129408 -0.0892403 0.987568
5.74166 6.68351 1.32737 -0.116219 -0.103007 0.987868
4.57199 6.69636 1.22524 -0.0777252 -0.146664 0.986128
3.56441 6.69654 1.21733 0.0436032 -0.121841 0.991591
2.55256 6.68533 1.28864 0.0791534 -0.142401 0.986639
2.27606 6.6806 1.31961 0.117022 -0.126213 0.985077
2.14733 5.80222 1.20555 0.121778 -0.169968 0.977896
3.15491 5.81965 1.10845 0.0704745 -0.154497 0.985477
4.20895 5.82567 1.07792 -0.0412863 -0.165418 0.985359
5.20745 5.81508 1.14567 -0.097036 -0.160142 0.982313
5.82368 5.8047 1.21005 -0.114604 -0.148914 0.982187
5.74585 4.93242 1.05635 -0.129168 -0.172505 0.976503
4.74094 4.9515 0.95646 -0.085045 -0.179265 0.980118
3.70326 4.95549 0.932152 0.0207262 -0.163237 0.986369
2.65048 4.94119 1.00048 0.0922101 -0.187428 0.977941
2.21208 4.93178 1.04589 0.112077 -0.191462 0.97508
2.3501 4.07049 0.848333 0.101039 -0.237056 0.966227
3.46154 4.08892 0.772342 0.0478382 -0.232636 0.971387
4.55236 4.08813 0.77831 -0.0706584 -0.212627 0.974575
5.60361 4.0719 0.851168 -0.0653979 -0.250923 0.965795
5.80842 4.0671 0.871937 -0.113549 -0.242394 0.96351
5.93671 28.407 1.99453 -0.39528 -0.247823 0.884498
4.9816 28.4959 1.67142 -0.347205 0.0295034 0.937325
3.88379 28.5269 1.47847 -0.0135866 0.09265 0.995606
2.83099 28.4388 1.81589 0.357685 -0.130989 0.92461
2.33626 28.3783 2.00497 0.390875 -0.151981 0.90781
3.33934 29.5008 1.93006 0.405486 -0.284205 0.868798
4.23802 29.6364 1.50762 0.49515 -0.251141 0.831718
5.06944 29.5214 1.86076 -0.523801 -0.229449 0.820357
5.1103 29.513 1.88406 -0.528015 -0.242087 0.813999
