1.47552 27.8507 2.26997 0.514585 -0.162015 0.841994
1.75507 28.7842 2.28006 0.57327 -0.144411 0.80654
2.38922 29.5625 2.11847 0.152316 -0.463058 0.873142
3.19281 30.2666 2.08074 0.343553 -0.236491 0.908733
4.18247 30.5044 2.0282 0.024765 -0.762269 0.640831
5.19682 30.2717 2.06503 -0.508434 -0.350031 0.769837
5.95168 29.4923 2.27828 -0.503639 -0.388529 0.771617
6.54039 28.589 2.22929 -0.435842 -0.231624 0.869708
6.50117 27.4019 2.03051 -0.356106 -0.0901541 0.929309
6.4415 26.2236 1.91764 -0.31194 -0.0450608 0.949002
6.39746 24.994 1.8893 -0.281165 -0.00844502 0.959614
6.40608 23.8213 1.89844 -0.25979 -0.00145517 0.965664
6.4132 22.7129 1.89685 -0.270469 -0.00712629 0.962651
6.40616 21.5951 1.89753 -0.258758 0.0036593 0.965935
6.39365 20.5293 1.8887 -0.259816 -0.0117249 0.965537
6.38704 19.4687 1.87724 -0.250946 -0.0167057 0.967857
6.35116 18.3568 1.846 -0.238949 -0.0315759 0.970519
6.37814 17.3134 1.82347 -0.216513 -0.036709 0.975589
6.36629 16.209 1.78872 -0.169786 -0.021299 0.985251
6.36971 15.1348 1.75539 -0.180205 -0.0296002 0.983184
6.36417 14.0626 1.70804 -0.198597 -0.0309259 0.979593
6.31192 12.9528 1.6706 -0.168612 -0.0186682 0.985397
6.3287 11.8834 1.64761 -0.159109 -0.0241374 0.986929
6.3501 10.8621 1.61071 -0.155837 -0.0415671 0.986908
6.33881 9.82262 1.57213 -0.173618 -0.0348573 0.984196
6.37951 8.70931 1.51947 -0.169727 -0.0597147 0.98368
6.35266 7.64031 1.43718 -0.164194 -0.0946461 0.981877
6.36462 6.57645 1.31873 -0.154057 -0.13358 0.978991
6.33978 5.52826 1.15508 -0.155028 -0.153228 0.975955
6.35489 4.52375 0.966665 -0.147332 -0.223337 0.963542
6.3902 3.49597 0.714688 -0.198751 -0.257453 0.94563
5.79582 3.1066 0.523165 -0.115764 -0.262597 0.957936
4.78417 3.31333 0.502895 -0.0607314 -0.275895 0.959218
3.7462 3.43399 0.509781 0.0189019 -0.267905 0.962871
2.75036 3.26088 0.512271 0.0597816 -0.267652 0.961654
1.76797 3.0412 0.553911 0.132763 -0.27699 0.951657
1.64347 4.08332 0.850084 0.180275 -0.24241 0.953278
1.67713 5.18118 1.08117 0.159198 -0.175756 0.971463
1.66785 6.21253 1.25319 0.162042 -0.151327 0.975021
1.62599 7.34305 1.40579 0.155885 -0.118383 0.980642
1.61557 8.34691 1.50887 0.166146 -0.0770552 0.982853
1.63012 9.35679 1.58162 0.176146 -0.0633854 0.982056
1.63529 10.4365 1.64656 0.200919 -0.0447028 0.978417
1.62415 11.5319 1.69283 0.219535 -0.0306281 0.9751
1.6104 12.6357 1.73033 0.206387 -0.0417071 0.977581
1.60921 13.7491 1.76996 0.201247 -0.0558102 0.977941
1.60529 14.7921 1.81754 0.234212 -0.0490345 0.970944
1.60244 15.8811 1.86946 0.251807 -0.0522175 0.966368
1.63349 16.882 1.90247 0.253327 -0.0440505 0.966299
1.62077 17.9873 1.95471 0.254097 -0.02597 0.96683
1.58858 19.108 2.01504 0.302656 -0.0538159 0.951558
1.54117 20.1965 2.07578 0.33372 -0.0149009 0.942514
1.54359 21.2352 2.09459 0.331471 -0.00263658 0.943462
1.55341 22.26 2.11036 0.348939 -0.0154895 0.937014
1.55686 23.511 2.12829 0.351002 -0.00681261 0.936313
1.53186 24.6761 2.13104 0.348348 0.0126091 0.93728
1.54484 25.8312 2.11445 0.366903 0.00198508 0.930201
1.51341 26.8745 2.13564 0.432252 -0.0290014 0.900209
1.47854 27.7429 2.24737 0.514585 -0.162015 0.841994
0.549926 27.6424 2.7616 0.472705 -0.245025 0.846142
0.674078 28.6753 3.06037 0.511383 -0.345928 0.786652
1.44534 29.471 3.00309 0.59849 -0.572425 0.560481
2.15985 30.1691 2.94292 0.643913 -0.630526 0.428951
3.04257 30.9179 2.85977 0.342511 -0.815305 0.423768
4.09462 31.1066 2.92135 0.118994 -0.837561 0.532462
5.19513 31.0304 2.87896 -0.196333 -0.909908 0.365405
6.00889 30.4341 2.95908 -0.603087 -0.538947 0.582003
6.8289 29.7417 3.03749 -0.502891 -0.528976 0.683582
7.43189 28.9764 2.9595 -0.493923 -0.473195 0.72947
7.45785 28.0098 2.6255 -0.501659 -0.232484 0.83324
7.44907 26.9825 2.35969 -0.382216 -0.146276 0.912422
7.43091 25.8868 2.24369 -0.344994 -0.0322357 0.938051
7.4162 24.7879 2.1981 -0.307222 -0.0224612 0.951221
7.41572 23.7823 2.18972 -0.283415 -0.00317566 0.958992
7.4243 22.7228 2.19316 -0.289219 -0.00247222 0.95726
7.40765 21.6715 2.18422 -0.286639 -0.00616228 0.958014
7.40216 20.5265 2.17485 -0.276649 -0.0111947 0.960887
7.4003 19.4526 2.14998 -0.265597 -0.030267 0.963609
7.39406 18.425 2.11345 -0.248479 -0.0347725 0.968013
7.39692 17.414 2.06909 -0.238488 -0.0561648 0.969509
7.38592 16.3073 2.00657 -0.216659 -0.0438644 0.975261
7.38295 15.1961 1.96237 -0.200979 -0.0399667 0.978778
7.39823 14.1923 1.92207 -0.199536 -0.03702 0.979191
7.36887 13.1101 1.8769 -0.19347 -0.0314852 0.980591
7.3788 12.0978 1.84663 -0.186906 -0.032148 0.981851
7.38084 11.0862 1.81419 -0.189655 -0.0328081 0.981301
7.38393 10.0665 1.77729 -0.188922 -0.0392787 0.981206
7.39773 9.01657 1.73256 -0.184445 -0.0533763 0.981379
7.37848 7.97778 1.6623 -0.182757 -0.073031 0.980442
7.39925 6.9172 1.56433 -0.196393 -0.134126 0.971309
7.38277 5.90986 1.40593 -0.178882 -0.161601 0.970508
7.35912 4.84393 1.21488 -0.181117 -0.183853 0.966085
7.39531 3.79497 0.998869 -0.189071 -0.247857 0.950168
7.4036 2.63632 0.661463 -0.174006 -0.302334 0.937185
7.37334 1.64619 0.323316 -0.163483 -0.323674 0.931935
6.48708 1.83106 0.232062 -0.159534 -0.318185 0.934495
5.43478 2.15196 0.201939 -0.0927402 -0.306271 0.947416
4.37834 2.39937 0.189907 -0.0516792 -0.319902 0.945831
3.35364 2.378 0.19938 0.07127 -0.308048 0.948686
2.34875 2.1397 0.210801 0.0936894 -0.299999 0.949328
1.40471 1.78955 0.223012 0.152734 -0.319009 0.935364
0.636564 1.83646 0.366957 0.15716 -0.319565 0.93444
0.619325 2.87663 0.712846 0.167636 -0.300598 0.938895
0.62996 3.98977 1.01947 0.175668 -0.230189 0.956992
0.635242 5.0644 1.24243 0.173611 -0.185447 0.967195
0.618388 6.20048 1.44799 0.178688 -0.161992 0.970479
0.595214 7.22318 1.60594 0.194349 -0.121713 0.973352
0.601957 8.2316 1.70419 0.205635 -0.0865064 0.974798
0.59833 9.44186 1.80801 0.209947 -0.074617 0.974861
0.609472 10.4467 1.87804 0.228388 -0.0567621 0.971906
0.600343 11.6214 1.93614 0.23774 -0.0362021 0.970654
0.59416 12.7198 1.97971 0.247243 -0.035627 0.968298
0.586242 13.7399 2.02733 0.270386 -0.0506321 0.96142
0.596955 14.7498 2.08002 0.273416 -0.0542219 0.96036
0.589019 15.7994 2.14284 0.275029 -0.0561583 0.959794
0.60287 16.9602 2.20557 0.286071 -0.0582875 0.956434
0.586967 18.0424 2.2813 0.306759 -0.0701218 0.949201
0.580552 19.0711 2.35688 0.327915 -0.0661474 0.942388
0.554783 20.0753 2.42686 0.354603 -0.048564 0.93372
0.551178 21.1024 2.46728 0.368634 -0.0294081 0.929055
0.564656 22.2331 2.49907 0.383136 -0.0263453 0.923316
0.572524 23.3917 2.51583 0.376281 -0.00328935 0.926499
0.5718 24.5292 2.50961 0.371357 0.0101964 0.928433
0.56009 25.5499 2.50236 0.372517 0.00519733 0.928011
0.561619 26.7287 2.55148 0.394487 -0.0777976 0.915461
0.553384 27.3973 2.69459 0.454608 -0.240306 0.857548
2.02637 27.4213 1.93021 0.425167 -0.0440246 0.904044
2.97603 27.4964 1.54416 0.302512 0.03879 0.952356
4.02878 27.5288 1.45662 -0.023423 0.145192 0.989126
5.04348 27.5228 1.62686 -0.188156 -0.00978445 0.98209
5.83595 27.4821 1.81917 -0.25535 -0.0828694 0.963291
5.8135 26.5067 1.74048 -0.28315 -0.0455703 0.957992
4.81928 26.5346 1.56751 -0.0534961 -0.0181183 0.998404
3.80371 26.5336 1.55981 0.034269 0.0817427 0.996064
2.74152 26.5011 1.68774 0.202435 0.0713142 0.976696
2.12983 26.4727 1.88894 0.348798 0.0216753 0.936947
2.11133 25.5291 1.90998 0.316432 -0.000996364 0.948615
3.12261 25.557 1.64673 0.152353 0.000438174 0.988326
4.28847 25.5683 1.54221 0.0324987 -0.00211353 0.99947
5.29334 25.5616 1.63526 -0.175835 0.0353076 0.983786
5.90382 25.55 1.75601 -0.206968 0.0149344 0.978234
5.75675 24.6068 1.73979 -0.22728 0.0119636 0.973756
4.66155 24.6147 1.55867 -0.0992971 0.0305403 0.994589
3.59722 24.6118 1.58436 0.080078 0.020451 0.996579
2.5013 24.5978 1.80806 0.272376 0.00449946 0.96218
2.04113 24.5877 1.94675 0.30409 0.0119989 0.952568
2.06851 23.6552 1.94453 0.330836 -0.00546188 0.943673
3.07338 23.6638 1.66537 0.171787 0.0264368 0.984779
4.1192 23.6684 1.55364 0.009452 0.0316276 0.999455
5.17729 23.6693 1.63243 -0.159601 0.0295974 0.986738
5.83648 23.6654 1.7528 -0.238759 0.0132368 0.970989
5.86613 22.7297 1.75378 -0.2109 0.0223269 0.977253
4.71492 22.7301 1.59404 -0.0736202 0.00633176 0.997266
3.56089 22.7282 1.60265 0.0900587 0.0446698 0.994934
2.40729 22.7212 1.83219 0.260456 -0.0237149 0.965194
2.07438 22.7185 1.93663 0.302329 -0.0138218 0.953104
2.11692 21.7842 1.90522 0.267528 -0.0199759 0.963343
3.12693 21.7917 1.66714 0.185561 -0.0140271 0.982533
4.13114 21.796 1.56063 0.0321885 -0.0299612 0.999033
5.17667 21.7974 1.63369 -0.134003 -0.0140324 0.990882
5.74849 21.7971 1.72991 -0.232927 -0.015957 0.972363
5.88363 20.8649 1.76823 -0.224239 -0.0145395 0.974426
4.86004 20.8655 1.5953 -0.0893827 -0.0128143 0.995915
3.7576 20.864 1.58459 0.0713746 -0.000505942 0.997449
2.72755 20.8581 1.73065 0.239721 -0.0470457 0.969701
2.23832 20.8537 1.85677 0.286048 -0.0551688 0.956626
2.06523 19.9211 1.89583 0.287185 -0.0176612 0.957712
3.05748 19.9309 1.66062 0.15094 -0.0181435 0.988376
4.12352 19.9354 1.57287 0.0135892 -0.0101822 0.999856
5.16656 19.9364 1.62583 -0.135075 -0.00894698 0.990795
5.75923 19.9359 1.72991 -0.22663 -0.0218295 0.973736
5.76931 19.0088 1.73468 -0.18211 -0.0045498 0.983268
4.77167 19.0116 1.58015 -0.121219 -0.0179956 0.992463
3.66665 19.009 1.58263 0.0666815 -0.00514185 0.997761
2.65406 19.0007 1.72858 0.177173 -0.00780714 0.984149
2.16492 18.9954 1.8377 0.260413 -0.0420967 0.964579
2.1812 18.0715 1.81367 0.237964 -0.0169222 0.971127
3.27323 18.0812 1.62621 0.140518 0.00719477 0.990052
4.28337 18.0866 1.55114 -0.0267111 -0.0168391 0.999501
5.37969 18.0866 1.661 -0.12797 -0.0118801 0.991707
5.82037 18.0848 1.73504 -0.171444 -0.0186299 0.985018
5.76595 17.1638 1.69848 -0.153616 -0.0165378 0.987992
4.74765 17.1651 1.5698 -0.0931119 0.00558261 0.99564
3.60804 17.1622 1.5678 0.101996 -0.0391335 0.994015
2.59165 17.1556 1.70955 0.169646 -0.0365569 0.984827
2.14788 17.1514 1.7915 0.19707 -0.0372274 0.979682
2.176 16.2332 1.74839 0.196187 -0.05311 0.979127
3.18793 16.2413 1.59426 0.12254 -0.0387644 0.991706
4.22838 16.2444 1.54723 -0.0137215 -0.0070595 0.999881
5.43317 16.2441 1.63921 -0.108924 -0.0238495 0.993764
5.71481 16.2432 1.68091 -0.154675 -0.0237489 0.98768
5.82602 15.3255 1.66842 -0.151928 -0.0321805 0.987868
4.68756 15.3271 1.55705 -0.0511874 -0.0204702 0.998479
3.68479 15.3259 1.54231 0.0486636 -0.0291564 0.99839
2.63592 15.3197 1.63762 0.137722 -0.0356123 0.98983
2.2335 15.3163 1.70149 0.18164 -0.040001 0.982551
2.18606 14.4005 1.68272 0.15498 -0.0268453 0.987553
3.3506 14.4077 1.54289 0.0978489 -0.0178684 0.995041
4.40629 14.4119 1.52107 -0.025578 -0.0195635 0.999481
5.45893 14.411 1.59787 -0.116969 -0.0371416 0.992441
5.82616 14.41 1.64116 -0.12732 -0.0386459 0.991109
5.77771 13.4956 1.60212 -0.129071 -0.0315155 0.991134
4.70615 13.4975 1.50721 -0.0557622 -0.033993 0.997865
3.63219 13.4954 1.4966 0.065842 -0.0429116 0.996907
2.61567 13.4905 1.59177 0.124816 -0.0295431 0.99174
2.17451 13.4869 1.65021 0.133316 -0.0365066 0.990401
2.21255 12.573 1.61752 0.170828 -0.0246411 0.984993
3.23668 12.5815 1.48659 0.097719 -0.0431913 0.994276
4.24553 12.5844 1.45424 -0.0439656 -0.0185149 0.998861
5.31106 12.5838 1.52612 -0.102737 -0.0275569 0.994327
5.74004 12.5823 1.57378 -0.12908 -0.0359686 0.990982
5.70115 11.6694 1.54654 -0.122203 -0.0332215 0.991949
4.67963 11.6722 1.45054 -0.0631985 -0.0359905 0.997352
3.58704 11.671 1.43391 0.0385959 -0.0433412 0.998315
2.43856 11.6623 1.54767 0.132115 -0.0424797 0.990324
2.16153 11.6596 1.58832 0.176203 -0.0450207 0.983324
2.19144 10.7475 1.55555 0.157874 -0.043156 0.986516
3.22774 10.7579 1.42019 0.110481 -0.0333299 0.993319
4.25488 10.7615 1.39412 -0.0212574 -0.0380977 0.999048
5.25253 10.7591 1.47069 -0.0997195 -0.037385 0.994313
5.74704 10.757 1.52582 -0.122361 -0.0254035 0.992161
5.76122 9.84617 1.48759 -0.123749 -0.0497873 0.991064
4.72689 9.85103 1.38456 -0.0879356 -0.0556876 0.994568
3.64424 9.85064 1.35448 0.03945 -0.0340611 0.998641
2.64357 9.84316 1.44303 0.126921 -0.0612163 0.990022
2.21498 9.83822 1.50295 0.147937 -0.0561232 0.987403
2.22027 8.92991 1.44539 0.156626 -0.0751834 0.984792
3.27215 8.94049 1.32905 0.075691 -0.0420549 0.996244
4.28277 8.9441 1.30716 -0.0457073 -0.0563266 0.997366
5.34834 8.93925 1.39133 -0.0929934 -0.0564461 0.994065
5.78654 8.93612 1.4407 -0.12388 -0.0568166 0.990669
5.83281 8.02671 1.39343 -0.128096 -0.0661986 0.98955
4.79128 8.03514 1.28863 -0.0724145 -0.0689125 0.994991
3.71071 8.03665 1.2517 0.044528 -0.0797122 0.995823
2.61484 8.0279 1.3355 0.0877637 -0.0604373 0.994306
2.26013 8.02296 1.37858 0.132165 -0.0776735 0.98818
2.1756 7.11751 1.29931 0.114588 -0.112975 0.986968
3.19741 7.13044 1.21026 0.0710708 -0.121063 0.990097
4.33116 7.1346 1.1844 -0.0476533 -0.103702 0.993466
5.36533 7.12701 1.25757 -0.0842912 -0.11051 0.990294
5.81531 7.12194 1.30259 -0.106587 -0.109962 0.988204
5.81589 6.22057 1.18618 -0.123309 -0.151973 0.980663
4.71662 6.23561 1.08398 -0.085565 -0.151324 0.984774
3.70726 6.2391 1.05432 0.0410396 -0.151759 0.987565
2.55122 6.22413 1.14134 0.100028 -0.156411 0.982614
2.30324 6.21993 1.16639 0.12775 -0.147811 0.98073
2.20206 5.32256 1.03127 0.11279 -0.178121 0.977523
3.20641 5.34082 0.938478 0.0670744 -0.163729 0.984222
4.20704 5.34639 0.913444 -0.0103116 -0.187806 0.982152
5.20838 5.33458 0.981227 -0.0915019 -0.168337 0.981473
5.7303 5.32512 1.03348 -0.117129 -0.158438 0.980397
5.83935 4.43205 0.872022 -0.100363 -0.223083 0.969619
4.79428 4.4516 0.779645 -0.0858869 -0.203586 0.975283
3.63736 4.45723 0.749513 0.0510744 -0.17768 0.982762
2.48447 4.43949 0.828228 0.0767687 -0.225447 0.971226
2.20516 4.43319 0.855921 0.107458 -0.227557 0.967818
2.11052 28.4215 1.99316 0.416452 -0.112755 0.902139
3.0913 28.5324 1.5979 0.316315 -0.133674 0.939189
4.15164 28.5953 1.39855 -0.0364343 0.0315228 0.998839
5.18746 28.5565 1.64127 -0.344892 0.0112968 0.938574
5.89209 28.4857 1.87401 -0.324199 -0.0285293 0.945559
5.15254 29.6154 1.7925 -0.539053 -0.268333 0.798385
4.19435 29.7461 1.4092 0.593908 0.0208922 0.804262
3.26984 29.6008 1.87453 0.482748 -0.259941 0.836292
3.1741 29.5831 1.92428 0.458381 -0.322109 0.828331
