1.45584 28.0361 2.20658 0.544807 -0.18957 0.816851
1.76157 29.0545 2.18193 0.537943 -0.114935 0.835109
2.47067 29.784 2.06316 0.241723 -0.531341 0.794294
3.20869 30.4733 2.01164 0.23108 -0.553755 0.799973
4.21071 30.618 2.01748 0.0926116 -0.762011 0.640644
5.23368 30.4756 2.03108 -0.522117 -0.406999 0.749353
5.86793 29.6911 2.18919 -0.533765 -0.42143 0.733138
6.51841 28.9455 2.23733 -0.5098 -0.312403 0.801566
6.54417 27.9491 2.01194 -0.406993 -0.066924 0.910976
6.49663 26.9399 1.88911 -0.303533 -0.100788 0.947475
6.40856 25.8123 1.80861 -0.29656 -0.00777755 0.954946
6.40058 24.7916 1.80617 -0.25536 0.0233853 0.966563
6.37374 23.621 1.80042 -0.262355 -0.00307818 0.964964
6.40024 22.6102 1.80263 -0.265171 0.00149075 0.964194
6.37703 21.4236 1.80596 -0.252454 -0.0012721 0.967607
6.3989 20.3479 1.80396 -0.248337 -0.0105566 0.96861
6.38206 19.3332 1.78893 -0.243008 -0.0146585 0.96989
6.38212 18.145 1.76648 -0.204826 -0.0220048 0.978288
6.35829 16.9209 1.71506 -0.210643 -0.0363123 0.976888
6.35707 15.8026 1.68685 -0.199266 -0.0271051 0.979571
6.33835 14.7462 1.64736 -0.184049 -0.0435487 0.981952
6.34379 13.6947 1.6144 -0.179179 -0.0313805 0.983314
6.35412 12.6875 1.58691 -0.180981 -0.025479 0.983152
6.3239 11.618 1.54959 -0.173974 -0.0293562 0.984313
6.34874 10.6142 1.51896 -0.15437 -0.0232304 0.98774
6.34967 9.52269 1.47401 -0.165401 -0.0420314 0.98533
6.32866 8.51806 1.41723 -0.153584 -0.0634806 0.985915
6.37283 7.49696 1.34069 -0.170056 -0.108866 0.979402
6.36257 6.41439 1.20911 -0.168038 -0.131602 0.976957
6.38304 5.36887 1.04869 -0.153296 -0.163776 0.974514
6.33576 4.3078 0.829778 -0.162269 -0.220908 0.961697
6.33842 3.32312 0.56663 -0.17902 -0.257231 0.949442
5.36973 3.47697 0.497658 -0.0584547 -0.26626 0.962127
4.29943 3.67797 0.484163 -0.02765 -0.233949 0.971856
3.23126 3.60987 0.487156 0.0510336 -0.248888 0.967175
2.21223 3.35228 0.485824 0.105172 -0.243285 0.964236
1.62556 3.79624 0.688442 0.170861 -0.257652 0.950909
1.62417 4.92139 0.951418 0.144232 -0.194942 0.970072
1.60257 5.98916 1.1425 0.167796 -0.164712 0.971964
1.61316 6.98203 1.28425 0.162119 -0.132834 0.977526
1.61687 8.14397 1.40429 0.179557 -0.0852151 0.98005
1.61412 9.33697 1.49501 0.201563 -0.0642277 0.977292
1.60775 10.4337 1.5612 0.201914 -0.0372838 0.978693
1.60145 11.5219 1.61116 0.219812 -0.0302714 0.975056
1.63278 12.5881 1.63719 0.217278 -0.0395755 0.97526
1.63525 13.6154 1.6707 0.210019 -0.0352555 0.977061
1.61548 14.6665 1.71809 0.242689 -0.0391009 0.969302
1.60146 15.7005 1.77615 0.24169 -0.0511493 0.968929
1.61217 16.7071 1.8117 0.265591 -0.0313421 0.963525
1.59162 17.8206 1.8702 0.281885 -0.0421703 0.958521
1.5979 18.9009 1.91117 0.281191 -0.0276367 0.959251
1.56723 19.9383 1.97114 0.322387 -0.037032 0.945883
1.55206 20.9437 1.99864 0.333091 -0.0139037 0.942791
1.54929 22.0439 2.01834 0.341374 -0.0201183 0.93971
1.54854 23.0788 2.03788 0.362134 -0.0156695 0.931962
1.54185 24.1434 2.04058 0.36254 0.00933921 0.931921
1.51337 25.2177 2.03851 0.34102 0.0161947 0.939917
1.5261 26.2207 2.02862 0.371255 -0.0149132 0.928398
1.46627 27.335 2.08495 0.459328 -0.0655425 0.885845
1.45601 28.0154 2.20164 0.530865 -0.176143 0.828622
0.561422 27.8672 2.72424 0.491791 -0.25226 0.833235
0.758377 28.8908 3.03766 0.555496 -0.512188 0.646966
1.54014 29.7092 2.96355 0.657349 -0.566678 0.496316
2.369 30.4574 2.89427 0.614587 -0.689909 0.375885
3.31161 31.139 2.84598 0.39323 -0.868681 0.257161
4.4096 31.2513 2.89805 0.0595837 -0.831496 0.552305
5.45148 31.0237 2.88858 -0.539216 -0.787268 0.299054
6.28272 30.3264 2.96833 -0.532094 -0.545343 0.647671
7.07434 29.6829 3.04235 -0.50207 -0.541576 0.674256
7.45048 28.8392 2.78297 -0.545372 -0.350732 0.761286
7.4798 27.7194 2.439 -0.493507 -0.260207 0.829905
7.44097 26.5463 2.1984 -0.347079 -0.108201 0.931573
7.40932 25.391 2.12953 -0.325945 -0.0263594 0.945021
7.40616 24.3457 2.10162 -0.287627 -0.00747695 0.957712
7.40438 23.2991 2.09795 -0.285742 0.00254142 0.958303
7.41244 22.2495 2.10031 -0.291509 -0.00197009 0.956566
7.41267 21.1346 2.09602 -0.28416 -0.00412157 0.958766
7.41731 20.0564 2.08293 -0.267698 -0.0200005 0.963295
7.39969 18.9801 2.04756 -0.252571 -0.0305821 0.967083
7.40586 17.7529 2.00204 -0.236703 -0.0449801 0.97054
7.37048 16.7411 1.93639 -0.230092 -0.0517908 0.971781
7.39408 15.6628 1.89827 -0.205927 -0.0380793 0.977817
7.36691 14.6524 1.84944 -0.20243 -0.0425972 0.97837
7.39036 13.588 1.81307 -0.196542 -0.0353529 0.979858
7.37862 12.4343 1.77178 -0.189388 -0.0318135 0.981387
7.37192 11.3467 1.73501 -0.188726 -0.0314365 0.981526
7.39197 10.2265 1.69919 -0.190634 -0.0375879 0.980941
7.38174 9.14744 1.64972 -0.185746 -0.0513859 0.981235
7.37028 8.02744 1.57798 -0.183192 -0.0626327 0.98108
7.39438 7.02766 1.49349 -0.201095 -0.13985 0.969529
7.40192 5.95054 1.32912 -0.181611 -0.160786 0.970137
7.39158 4.83388 1.12931 -0.178613 -0.192799 0.964845
7.37548 3.6188 0.861496 -0.174095 -0.237924 0.955554
7.38333 2.53758 0.537332 -0.166391 -0.306963 0.937038
6.99332 1.82087 0.226302 -0.163029 -0.322906 0.932282
6.07312 2.21236 0.203317 -0.147525 -0.307045 0.940191
4.99792 2.51578 0.188573 -0.080866 -0.301017 0.950147
3.99461 2.70992 0.191957 -0.00136788 -0.294718 0.954663
2.95902 2.52031 0.187567 0.0748413 -0.291837 0.953513
1.99151 2.23133 0.193159 0.119478 -0.285549 0.950887
1.01238 1.87693 0.227727 0.15619 -0.322879 0.933463
0.621059 2.43319 0.478696 0.159282 -0.304927 0.938962
0.601126 3.38857 0.781632 0.171879 -0.276127 0.945569
0.606065 4.48904 1.04248 0.174688 -0.20672 0.962678
0.596891 5.51332 1.24532 0.172073 -0.176265 0.969163
0.593256 6.6467 1.44093 0.200627 -0.151004 0.967897
0.602497 7.72145 1.57141 0.207236 -0.091629 0.973982
0.608804 8.75891 1.66191 0.209917 -0.083978 0.974105
0.602336 9.75978 1.74755 0.213342 -0.0756887 0.974041
0.578364 10.9284 1.82752 0.237355 -0.0452288 0.97037
0.578036 12.0184 1.87031 0.23882 -0.0380603 0.970316
0.608283 13.0364 1.90293 0.257546 -0.0403501 0.965423
0.605787 14.1733 1.95828 0.270006 -0.0486223 0.961604
0.597575 15.2027 2.0193 0.277505 -0.0547645 0.959162
0.583594 16.3011 2.08515 0.281576 -0.0523796 0.958099
0.600773 17.5465 2.15515 0.293293 -0.0568419 0.954331
0.603915 18.5751 2.22417 0.32733 -0.0688289 0.9424
0.571795 19.6665 2.30737 0.334809 -0.0535373 0.940764
0.562995 20.7594 2.36082 0.358247 -0.0321577 0.933071
0.564092 21.8532 2.39472 0.379988 -0.0367291 0.924262
0.579231 22.9432 2.41948 0.37427 -0.0173871 0.927157
0.581044 24.0216 2.41957 0.373583 0.00986128 0.927544
0.547226 25.0998 2.41949 0.371518 0.0140501 0.928319
0.567059 26.1567 2.41073 0.372569 -0.00484917 0.927992
0.547562 27.1751 2.54677 0.476269 -0.167618 0.863175
0.565779 27.7173 2.67424 0.482737 -0.250813 0.838961
1.93216 27.5535 1.87329 0.458501 -0.0769395 0.885357
2.84484 27.6323 1.46863 0.407149 -0.019155 0.913161
3.86685 27.6803 1.35769 0.00367188 0.153797 0.988096
4.94897 27.6724 1.51363 -0.191561 0.0121913 0.981405
5.90162 27.6162 1.74977 -0.28886 -0.0712146 0.954719
5.9271 26.6468 1.68583 -0.290192 -0.0795744 0.953654
4.79416 26.6756 1.48336 -0.070778 -0.0487295 0.996301
3.76175 26.6679 1.46166 0.0275822 0.0505984 0.998338
2.69317 26.6388 1.59809 0.202448 0.051615 0.977932
2.04356 26.6079 1.82184 0.341987 0.0129401 0.939616
2.08133 25.6689 1.82384 0.334133 0.0615183 0.940516
3.16094 25.6996 1.55499 0.155402 0.0123545 0.987774
4.28209 25.713 1.44524 -0.000694695 -0.013946 0.999903
5.30986 25.7057 1.53414 -0.137629 0.0349734 0.989866
5.79365 25.6972 1.63095 -0.262555 0.0269904 0.964539
5.87565 24.7543 1.67637 -0.226127 0.00863501 0.974059
4.87492 24.762 1.48889 -0.13892 0.0129872 0.990219
3.87019 24.7606 1.46295 0.0885144 0.00599037 0.996057
2.82381 24.7474 1.63256 0.222464 -0.00479079 0.974929
2.11798 24.7343 1.82123 0.325936 0.0238226 0.945092
2.0868 23.803 1.84723 0.32698 -0.00481028 0.945019
3.05555 23.8117 1.57666 0.197815 0.0235808 0.979956
4.19448 23.8181 1.46175 0.0216125 0.0237605 0.999484
5.38294 23.8208 1.57378 -0.163188 -0.00373067 0.986588
5.66722 23.8197 1.62442 -0.193981 -7.01617e-05 0.981005
5.77941 22.8873 1.64752 -0.202636 0.0199107 0.979052
4.72005 22.8894 1.50115 -0.0793227 0.0227604 0.996589
3.69314 22.8853 1.48729 0.0886991 0.024609 0.995754
2.6231 22.8769 1.68533 0.224316 0.0322619 0.973982
2.04532 22.8716 1.84867 0.315369 -0.00951195 0.948921
2.10445 21.9431 1.82291 0.292814 -0.00742804 0.956141
3.16421 21.9499 1.56877 0.190431 -0.00140088 0.9817
4.18597 21.9548 1.47161 -0.00633239 -0.0209954 0.99976
5.1981 21.9587 1.54619 -0.122268 0.0291708 0.992068
5.8145 21.9585 1.65592 -0.22984 0.0284938 0.972811
5.68369 21.0309 1.63142 -0.239697 0.0158077 0.970719
4.53258 21.0275 1.4782 -0.0620715 -0.00404251 0.998064
3.49702 21.0273 1.51697 0.144412 0.00561433 0.989502
2.39005 21.019 1.73692 0.250381 -0.0294839 0.967698
2.11091 21.0158 1.80798 0.284823 -0.0294916 0.958126
2.14573 20.091 1.78836 0.292001 -0.0296701 0.955958
3.18238 20.1003 1.55164 0.167718 0.00126997 0.985834
4.30854 20.1046 1.48166 0.0174152 -0.00423426 0.999839
5.38893 20.1057 1.56829 -0.193733 0.00642301 0.981033
5.70105 20.1059 1.62896 -0.212158 -0.00473705 0.977224
5.82901 19.1839 1.65851 -0.188485 0.0159901 0.981946
4.81955 19.1856 1.50683 -0.126519 -0.00382349 0.991957
3.69977 19.1815 1.49513 0.0509908 -0.0170693 0.998553
2.5063 19.1721 1.66628 0.21426 -0.00879879 0.976737
2.09136 19.1676 1.77516 0.279488 -0.0316322 0.959628
2.14427 18.2497 1.74089 0.259783 -0.0258133 0.965322
3.24087 18.2595 1.54192 0.151954 -0.00591471 0.98837
4.31843 18.2649 1.47154 -0.0175294 -0.0125541 0.999768
5.31551 18.2651 1.56849 -0.126932 -0.00191057 0.99191
5.86046 18.2642 1.66029 -0.175166 -0.0122432 0.984463
5.7284 17.3473 1.61157 -0.148381 -0.0218789 0.988688
4.62255 17.3489 1.47098 -0.0653826 -0.022495 0.997607
3.56025 17.3454 1.4925 0.108012 -0.0235806 0.99387
2.49392 17.3374 1.64484 0.170719 -0.0263872 0.984966
2.14323 17.3336 1.71306 0.201934 -0.036274 0.978727
2.18089 16.4208 1.66916 0.213072 -0.0250599 0.976715
3.18971 16.4293 1.51301 0.12725 -0.0150996 0.991756
4.32644 16.4339 1.46701 -0.03515 -0.00909101 0.999341
5.41308 16.4336 1.55295 -0.127397 -0.0208166 0.991633
5.74318 16.4325 1.59906 -0.137083 -0.0179012 0.990398
5.80737 15.5194 1.58538 -0.150428 -0.030836 0.98814
4.80787 15.5217 1.48509 -0.0669819 -0.0188259 0.997577
3.79429 15.5204 1.45654 0.0129005 -0.0403381 0.999103
2.79269 15.5151 1.53938 0.141912 -0.0305689 0.989407
2.13637 15.5099 1.63668 0.224061 -0.0599981 0.972727
2.25438 14.6005 1.59374 0.149394 -0.0332905 0.988217
3.29744 14.6076 1.46182 0.0790898 -0.0324744 0.996338
4.46721 14.6102 1.44901 -0.0347203 -0.0344379 0.998804
5.51107 14.6095 1.52532 -0.101248 -0.0412762 0.994005
5.78171 14.6087 1.55555 -0.111667 -0.0403683 0.992925
5.69781 13.6998 1.51068 -0.122443 -0.0360954 0.991819
4.5979 13.7018 1.41856 -0.0620759 -0.0348891 0.997461
3.58391 13.6999 1.41531 0.0425623 -0.058105 0.997403
2.47495 13.6935 1.52715 0.140475 -0.0354829 0.989448
2.36325 13.6925 1.54305 0.141148 -0.0327252 0.989447
2.24365 12.7829 1.53199 0.144607 -0.0381356 0.988754
3.25069 12.7904 1.40715 0.0657892 -0.0346482 0.997232
4.34424 12.7939 1.37705 -0.0417534 -0.0137481 0.999033
5.38425 12.7915 1.45629 -0.102855 -0.0208156 0.994479
5.82245 12.79 1.50368 -0.117705 -0.023206 0.992777
5.76716 11.8824 1.47546 -0.126241 -0.0274524 0.99162
4.75684 11.8847 1.37533 -0.0727911 -0.0349738 0.996734
3.75444 11.8849 1.34755 0.0161902 -0.0184897 0.999698
2.73291 11.8792 1.43021 0.12769 -0.0468654 0.990706
2.17344 11.8743 1.51204 0.159408 -0.0546101 0.985701
2.16175 10.9664 1.48573 0.155537 -0.0394306 0.987043
3.25029 10.9761 1.34141 0.088615 -0.0461274 0.994997
4.34221 10.9788 1.32174 -0.0598436 -0.051164 0.996896
5.39219 10.9766 1.40565 -0.106153 -0.0402561 0.993535
5.68767 10.9752 1.44089 -0.118516 -0.0483444 0.991775
5.81924 10.0688 1.41704 -0.126211 -0.0278927 0.991611
4.77641 10.0734 1.31493 -0.0875364 -0.0506837 0.994871
3.66037 10.0734 1.2779 0.0416587 -0.0615147 0.997236
2.62692 10.0654 1.37333 0.124003 -0.0520733 0.990915
2.16558 10.0605 1.43781 0.16275 -0.0779494 0.983583
2.1604 9.15602 1.38068 0.166304 -0.0744627 0.983259
3.27707 9.16777 1.25409 0.0859271 -0.0571771 0.994659
4.28973 9.17083 1.23848 -0.0393046 -0.0521621 0.997865
5.35455 9.16668 1.32183 -0.097594 -0.0609896 0.993356
5.5986 9.16524 1.34572 -0.11231 -0.0567009 0.992054
5.7524 8.25986 1.31235 -0.112695 -0.0908325 0.989469
4.68208 8.26741 1.21064 -0.074605 -0.0561972 0.995628
3.6362 8.26799 1.18356 0.0287162 -0.0603284 0.997765
2.52523 8.25768 1.28014 0.120501 -0.0508062 0.991412
2.20023 8.25348 1.31779 0.140654 -0.0832723 0.986551
2.34762 7.35519 1.22536 0.113485 -0.0902019 0.989437
3.41467 7.36821 1.12736 0.0680635 -0.0917045 0.993457
4.46021 7.36976 1.12602 -0.0621893 -0.112869 0.991662
5.62152 7.36037 1.22002 -0.0972528 -0.109133 0.989258
5.84306 7.35763 1.24509 -0.119606 -0.119043 0.985659
5.82689 6.46049 1.13374 -0.125907 -0.14905 0.980781
4.75235 6.47404 1.03639 -0.0747141 -0.139166 0.987446
3.70327 6.47766 1.00329 0.0332871 -0.134711 0.990326
2.6777 6.4655 1.07696 0.0847319 -0.137758 0.986835
2.13458 6.45621 1.13348 0.130585 -0.128712 0.983047
2.13856 5.56464 0.992928 0.125114 -0.168822 0.977674
3.16694 5.58331 0.894745 0.0830873 -0.166419 0.982548
4.26887 5.58929 0.866597 -0.0418633 -0.159247 0.986351
5.34261 5.57556 0.949274 -0.0989239 -0.157484 0.982554
5.8062 5.56722 0.997825 -0.11624 -0.160445 0.980176
5.78128 4.67983 0.832586 -0.123272 -0.195863 0.972852
4.77982 4.69842 0.739829 -0.0907755 -0.186761 0.978202
3.77735 4.70687 0.693825 0.0503647 -0.18127 0.982143
2.67963 4.68973 0.773707 0.0761158 -0.188778 0.979066
2.22328 4.67972 0.819615 0.116142 -0.187388 0.975396
2.02236 28.5561 1.91224 0.439059 0.0196117 0.898244
3.02823 28.685 1.53158 0.282624 -0.209258 0.936128
4.1463 28.7555 1.27855 -0.0156116 -0.0276884 0.999495
5.22625 28.6991 1.54774 -0.368812 -0.0906487 0.925073
6.01193 28.6053 1.85391 -0.283809 -0.136738 0.949081
5.2083 29.7788 1.7294 -0.595422 -0.158747 0.787574
4.21772 29.9172 1.34047 0.140597 -0.746124 0.650792
3.28793 29.7586 1.77932 0.391956 -0.207701 0.896231
3.25185 29.7544 1.79112 0.323387 -0.157229 0.933113
