1.43594 28.2419 2.13819 0.566801 -0.171652 0.80502
1.4882 27.1669 1.96034 0.464003 -0.0650741 0.883164
1.51853 26.1406 1.93449 0.345022 0.0127178 0.93844
1.59828 24.9962 1.91881 0.355121 0.0168428 0.934669
1.57985 23.924 1.93706 0.360029 0.00545681 0.932925
1.55704 22.7637 1.9392 0.348963 -0.0146093 0.937022
1.56245 21.6831 1.91789 0.329847 -0.0227792 0.943759
1.56451 20.6512 1.90102 0.332926 -0.0186576 0.942768
1.57988 19.5408 1.85973 0.304209 -0.0491264 0.951338
1.60327 18.4934 1.8087 0.288209 -0.0425237 0.956584
1.64507 17.3859 1.74971 0.251753 -0.058107 0.965983
1.64641 16.2387 1.70041 0.252581 -0.0443416 0.966559
1.60479 15.2112 1.65579 0.207688 -0.0573786 0.976511
1.68452 14.0623 1.58403 0.240185 -0.0318422 0.970205
1.65001 12.927 1.56246 0.213109 -0.019944 0.976825
1.63418 11.9179 1.53094 0.218683 -0.0301225 0.975331
1.62702 10.7761 1.48797 0.216 -0.042379 0.975473
1.63224 9.75544 1.4288 0.18872 -0.0762471 0.979023
1.67531 8.62705 1.3438 0.191108 -0.0716802 0.978948
1.6795 7.56504 1.24614 0.154385 -0.109812 0.981889
1.66412 6.54269 1.12951 0.165246 -0.146634 0.975291
1.65262 5.33598 0.937648 0.163152 -0.180359 0.969868
1.65063 4.29422 0.719821 0.170675 -0.22438 0.959439
2.09229 3.664 0.493044 0.115012 -0.270906 0.95571
3.08165 3.87 0.474216 0.0625305 -0.243396 0.967808
4.10294 3.96389 0.459357 -0.031435 -0.219856 0.975026
5.1865 3.80394 0.481521 -0.0684817 -0.246641 0.966684
6.18766 3.55382 0.517832 -0.158652 -0.27419 0.948227
6.34456 4.58407 0.800857 -0.171402 -0.212938 0.961799
6.34693 5.56726 0.991749 -0.17048 -0.16776 0.97096
6.36043 6.62218 1.14843 -0.182867 -0.127506 0.974771
6.34927 7.66993 1.26624 -0.153368 -0.0911415 0.983827
6.32701 8.74041 1.34445 -0.162864 -0.0504029 0.985359
6.35245 9.90464 1.40372 -0.177621 -0.0411743 0.983237
6.3217 10.9497 1.44127 -0.146712 -0.0297033 0.988701
6.32797 12.0757 1.47874 -0.164765 -0.024201 0.985928
6.33609 13.1088 1.51239 -0.16557 -0.0253325 0.985855
6.29823 14.2974 1.5373 -0.153275 -0.0285109 0.987648
6.31996 15.3046 1.58172 -0.190724 -0.0506414 0.980337
6.32193 16.3069 1.60564 -0.199779 -0.0186007 0.979664
6.35008 17.4381 1.64556 -0.202841 -0.0430988 0.978244
6.36068 18.4562 1.67591 -0.223207 -0.0157164 0.974308
6.37348 19.6419 1.70389 -0.249625 -0.0132891 0.96825
6.35694 20.8083 1.7094 -0.259345 -0.00619022 0.965765
6.36401 21.8389 1.71453 -0.256595 0.00701226 0.966494
6.38579 22.8776 1.71234 -0.277062 -0.00279569 0.960848
6.37842 23.9409 1.71258 -0.25122 0.00269778 0.967802
6.39505 24.9668 1.70973 -0.279012 0.00764607 0.960206
6.40863 26.1388 1.72636 -0.274789 -0.0317618 0.96098
6.43163 27.3523 1.8214 -0.326142 -0.103576 0.939629
6.55716 28.4986 2.00417 -0.493005 -0.197012 0.847427
6.26911 29.4811 2.234 -0.503444 -0.467164 0.726844
5.59075 30.2324 2.0664 -0.687976 -0.185133 0.699479
4.81021 30.7938 1.96026 0.0997437 -0.700591 0.706557
3.81426 30.7953 1.96238 -0.0937377 -0.660714 0.744741
2.84857 30.458 1.9406 0.470446 -0.354128 0.808254
2.12783 29.7644 1.98444 0.502115 -0.508665 0.654914
1.60924 28.9247 2.1476 0.688075 -0.213777 0.693435
1.43846 28.2865 2.14755 0.584622 -0.193135 0.787964
0.53787 28.1787 2.73277 0.510501 -0.260018 0.819621
0.551976 27.1941 2.44502 0.488865 -0.208732 0.847019
0.550026 26.162 2.32201 0.387993 -0.0298348 0.920536
0.593073 25.1019 2.31051 0.370657 0.0149269 0.92865
0.58731 24.014 2.32527 0.372676 0.00701701 0.92793
0.564734 23.0114 2.33334 0.376652 -0.0107236 0.92629
0.58218 21.9926 2.30464 0.373737 -0.0256488 0.927174
0.571971 20.8509 2.27235 0.359549 -0.0324909 0.93256
0.571977 19.7363 2.22141 0.340903 -0.0530167 0.938595
0.587267 18.619 2.14388 0.318412 -0.059699 0.946058
0.618131 17.5543 2.06402 0.295494 -0.0587121 0.953521
0.61996 16.3973 1.99299 0.285809 -0.0545845 0.956731
0.587867 15.2701 1.93824 0.27901 -0.0538484 0.958777
0.635423 14.1096 1.86013 0.266897 -0.0535491 0.962236
0.607914 13.1025 1.81782 0.262206 -0.0375625 0.964281
0.612637 12.0303 1.77616 0.240036 -0.0380107 0.97002
0.57754 11.0007 1.7442 0.238687 -0.0408547 0.970237
0.603232 9.95269 1.6749 0.22516 -0.0736655 0.971494
0.608678 8.87734 1.58669 0.20778 -0.0826318 0.974672
0.643275 7.81783 1.48381 0.203701 -0.0938205 0.974527
0.607595 6.80488 1.37347 0.193855 -0.136893 0.971432
0.60816 5.78195 1.20464 0.175529 -0.172361 0.969262
0.608815 4.67511 0.992741 0.172242 -0.197371 0.965079
0.600682 3.66958 0.767566 0.172824 -0.239318 0.955377
0.625181 2.52804 0.420774 0.162443 -0.31205 0.936075
1.23126 2.23511 0.21829 0.16649 -0.304171 0.937956
2.18426 2.60423 0.189678 0.0931295 -0.289733 0.952566
3.20921 2.85969 0.184162 0.0640866 -0.291686 0.954349
4.22004 2.96661 0.191335 -0.0361731 -0.299011 0.953528
5.28392 2.72372 0.185005 -0.0778281 -0.28693 0.954751
6.31595 2.41578 0.215677 -0.155688 -0.298211 0.941699
7.23788 1.99346 0.235802 -0.163559 -0.318429 0.93373
7.39254 2.88594 0.561215 -0.175602 -0.30063 0.937393
7.37775 3.85637 0.828281 -0.181258 -0.227865 0.956673
7.37624 4.91967 1.05614 -0.169748 -0.17964 0.968976
7.38507 5.92568 1.23599 -0.179839 -0.1573 0.971038
7.37657 6.95026 1.39064 -0.197302 -0.12356 0.972467
7.36227 7.94832 1.48361 -0.179537 -0.0733322 0.981014
7.38314 9.02798 1.55675 -0.181892 -0.0563126 0.981705
7.38883 10.172 1.6108 -0.189952 -0.0398187 0.980986
7.37105 11.1937 1.64464 -0.18845 -0.032183 0.981554
7.38335 12.3708 1.68528 -0.188896 -0.032139 0.981471
7.37942 13.4329 1.7187 -0.193753 -0.0321713 0.980523
7.35528 14.5757 1.75779 -0.202418 -0.0423696 0.978382
7.37522 15.5877 1.80506 -0.204021 -0.0411278 0.978102
7.35947 16.7502 1.84801 -0.230471 -0.0503278 0.971765
7.38204 17.8196 1.91197 -0.239862 -0.044734 0.969776
7.40583 18.928 1.96006 -0.251138 -0.030311 0.967477
7.39842 20.0211 1.98881 -0.269554 -0.0225884 0.962715
7.38756 21.0769 1.99958 -0.279989 -0.00701258 0.959977
7.39968 22.1123 2.00931 -0.28485 0.0002245 0.958572
7.42168 23.2395 2.0135 -0.284699 0.00255922 0.958612
7.39555 24.2422 2.00739 -0.288496 -0.00322147 0.957476
7.41283 25.2506 2.03032 -0.3293 -0.0409894 0.943335
7.42065 26.3169 2.07108 -0.346206 -0.0674782 0.935435
7.42372 27.3292 2.21375 -0.431971 -0.225635 0.873207
7.46854 28.3088 2.50067 -0.50773 -0.241496 0.826969
7.45404 29.2456 2.90102 -0.520661 -0.441517 0.730731
6.87768 29.9933 3.02039 -0.507509 -0.554719 0.658735
5.9876 30.7031 2.91364 -0.6887 -0.621427 0.373526
5.03963 31.3045 2.87234 -0.328543 -0.869487 0.364884
3.95028 31.3529 2.9149 0.0560014 -0.866318 0.496343
2.97424 31.0785 2.86573 0.478565 -0.867502 0.0999568
2.14069 30.3965 2.91762 0.59168 -0.711277 0.379473
1.3375 29.62 2.96894 0.652821 -0.546654 0.523499
0.647785 28.8722 2.9668 0.523397 -0.490628 0.694693
0.544138 28.2993 2.76715 0.510503 -0.260017 0.819621
2.09425 28.7466 1.73603 0.513547 -0.0203544 0.85782
3.05982 28.8632 1.41903 0.176548 -0.157818 0.971558
4.0475 28.9442 1.12601 0.127829 -0.0557658 0.990227
5.02039 28.8981 1.3403 -0.410759 -0.0741805 0.908721
5.96571 28.7791 1.7605 -0.302209 -0.299541 0.904956
5.89707 27.7816 1.66579 -0.305345 -0.0190266 0.952052
4.92357 27.8365 1.38811 -0.223402 0.0625433 0.972718
3.90272 27.8463 1.20824 -0.0474817 0.108343 0.992979
2.85282 27.8036 1.39248 0.28127 -0.000404542 0.959629
2.04948 27.7255 1.71665 0.408984 -0.0571253 0.910752
2.0674 26.7646 1.71205 0.352387 0.0428425 0.934873
3.05716 26.8045 1.42038 0.148235 0.151488 0.977281
4.09106 26.8355 1.35183 -0.00239633 0.0863528 0.996262
5.23577 26.8314 1.4497 -0.194502 -0.0398742 0.980091
5.73048 26.8168 1.55851 -0.226982 -0.0581456 0.972162
5.76694 25.8642 1.53196 -0.287631 -0.0102806 0.957686
4.70746 25.8789 1.3546 -0.0986755 0.00577259 0.995103
3.66659 25.8717 1.39412 0.108306 0.00377752 0.99411
2.66054 25.8464 1.55792 0.216283 0.0540325 0.974834
2.07103 25.8265 1.73421 0.326977 0.00686746 0.945008
2.20909 24.9026 1.69756 0.294087 -0.00751982 0.955749
3.26534 24.9215 1.45057 0.16274 -0.00519894 0.986655
4.39648 24.9335 1.36458 0.00130825 0.00736393 0.999972
5.4152 24.9312 1.48548 -0.182785 0.0272436 0.982775
5.86788 24.9253 1.57922 -0.218693 0.0207647 0.975573
5.79198 23.9922 1.57447 -0.205514 -0.00593201 0.978636
4.64116 23.9934 1.38394 -0.0657616 0.0124302 0.997758
3.62398 23.991 1.38821 0.139843 0.0246236 0.989867
2.44064 23.9774 1.63991 0.315247 0.0144345 0.9489
2.17066 23.9742 1.72921 0.310972 -0.00502554 0.950406
2.07911 23.0461 1.75403 0.31852 -0.00340933 0.94791
3.22851 23.0559 1.45487 0.202535 0.0404071 0.978441
4.39886 23.0639 1.38835 -0.00783456 0.0168184 0.999828
5.56085 23.0644 1.52102 -0.200262 0.0125162 0.979662
5.83712 23.0639 1.57706 -0.216295 0.0157258 0.976201
5.78595 22.1394 1.56181 -0.219137 0.0251133 0.975371
4.70409 22.1385 1.4132 -0.0532195 0.00244727 0.99858
3.58501 22.1324 1.41131 0.133488 0.0115459 0.990983
2.48306 22.1263 1.62584 0.257518 0.0117913 0.966202
2.20998 22.1241 1.70583 0.303595 0.00670766 0.952777
2.29287 21.2024 1.68068 0.264824 -0.0157522 0.964168
3.49373 21.2112 1.4223 0.152259 0.00201919 0.988339
4.59774 21.2148 1.39588 -0.0476698 -0.00716272 0.998837
5.6082 21.2163 1.52253 -0.158011 -0.00318491 0.987432
5.67131 21.2163 1.53649 -0.245106 -0.0108731 0.969435
5.77495 20.2959 1.56435 -0.222383 -0.00447285 0.974949
4.71876 20.2958 1.41361 -0.0765479 0.0223575 0.996815
3.6856 20.293 1.40816 0.0391582 0.0183872 0.999064
2.64202 20.2861 1.56101 0.226689 -0.00840365 0.973931
2.191 20.2812 1.67541 0.281895 -0.00960623 0.959397
2.19941 19.3624 1.66812 0.274676 -0.00850415 0.961499
3.21651 19.3737 1.46462 0.12479 0.0400405 0.991375
4.24528 19.3775 1.39162 0.000461664 -0.0724141 0.997375
5.31683 19.3782 1.48548 -0.137005 0.0327208 0.99003
5.67926 19.3776 1.54508 -0.178666 0.0228976 0.983643
5.81095 18.4616 1.56819 -0.169543 -0.0120004 0.98545
4.78004 18.4632 1.41455 -0.0950067 0.019861 0.995278
3.70318 18.4611 1.39571 0.0260054 -0.023158 0.999394
2.53595 18.4522 1.57369 0.186291 -0.00902186 0.982453
2.21799 18.4489 1.6368 0.237174 -0.0160487 0.971335
2.19965 17.5377 1.62401 0.214702 -0.0506801 0.975364
3.3346 17.5461 1.42835 0.150723 -0.0205559 0.988362
4.43669 17.5489 1.38008 -0.0603492 0.00168267 0.998176
5.59392 17.5484 1.51019 -0.148101 -0.0281499 0.988572
5.65427 17.5483 1.51923 -0.164023 -0.0355757 0.985815
5.70735 16.6379 1.50427 -0.160453 -0.0237494 0.986758
4.6342 16.6395 1.39161 -0.0622538 0.0109649 0.998
3.63169 16.638 1.3896 0.0711279 0.00741571 0.99744
2.57316 16.6318 1.52048 0.152136 -0.0307371 0.987882
2.22298 16.6288 1.57447 0.18468 -0.0218263 0.982556
2.19059 15.7204 1.54956 0.183816 -0.0478129 0.981797
3.28017 15.7279 1.40168 0.082228 -0.019537 0.996422
4.38755 15.7314 1.37777 -0.0461866 -0.00851755 0.998897
5.42664 15.7305 1.45474 -0.0942934 -0.0125841 0.995465
5.706 15.7296 1.49054 -0.141936 -0.0353684 0.989244
5.76144 14.8228 1.4735 -0.130551 -0.0459952 0.990374
4.73946 14.8245 1.37899 -0.0679007 -0.02484 0.997383
3.7134 14.8229 1.35795 0.0292693 -0.0275323 0.999192
2.66739 14.8172 1.45062 0.123138 -0.017633 0.992233
2.21302 14.8138 1.51894 0.172033 -0.0357144 0.984444
2.34841 13.9096 1.46529 0.135073 -0.0352983 0.990207
3.50293 13.9165 1.34296 0.0679321 -0.0256746 0.99736
4.54886 13.9199 1.33631 -0.0349555 -0.0243338 0.999093
5.62076 13.9179 1.42093 -0.109375 -0.0433115 0.993057
5.7386 13.9175 1.43579 -0.136919 -0.0485857 0.98939
5.72488 13.0124 1.41297 -0.136349 -0.0309131 0.990178
4.72769 13.0137 1.32079 -0.0576504 -0.0315291 0.997839
3.63633 13.0133 1.31034 0.0267875 -0.041559 0.998777
2.44494 13.0057 1.42327 0.137565 -0.0304834 0.990024
2.43949 13.0057 1.42403 0.147447 -0.0262548 0.988721
2.2368 12.0996 1.42093 0.166012 -0.0358576 0.985472
3.27931 12.1074 1.29229 0.0755709 -0.0314634 0.996644
4.28603 12.1107 1.27151 -0.0240657 -0.01724 0.999562
5.3648 12.1092 1.34694 -0.0997163 -0.0327764 0.994476
5.78626 12.1077 1.39671 -0.124383 -0.00329276 0.992229
5.76152 11.2043 1.36802 -0.120268 -0.0269647 0.992375
4.72455 11.2075 1.27076 -0.0678546 -0.0224677 0.997442
3.69841 11.2066 1.23761 0.0604878 -0.0499355 0.996919
2.63602 11.2 1.33371 0.132348 -0.016931 0.991059
2.28812 11.1969 1.38484 0.152937 -0.00663493 0.988214
2.33733 10.2953 1.33836 0.16321 -0.0524436 0.985197
3.33841 10.3039 1.22608 0.08182 -0.0355861 0.996012
4.42662 10.3067 1.21178 -0.052095 -0.0536334 0.997201
5.45644 10.3033 1.30113 -0.0986131 -0.0387687 0.99437
5.74282 10.302 1.33145 -0.120145 -0.0430758 0.991821
5.82048 9.39985 1.30087 -0.12519 -0.0521902 0.990759
4.79703 9.40537 1.19805 -0.0851974 -0.0532152 0.994942
3.71342 9.40645 1.15413 0.00912129 -0.0870295 0.996164
2.68731 9.39873 1.23854 0.119705 -0.0626738 0.990829
2.25499 9.3935 1.29771 0.140307 -0.0533784 0.988668
2.24676 8.49424 1.23908 0.125746 -0.0713645 0.989492
3.36586 8.50683 1.11912 0.0590647 -0.0523732 0.996879
4.52847 8.50851 1.12526 -0.084954 -0.062038 0.994452
5.6117 8.50156 1.22633 -0.120171 -0.0628973 0.990759
5.65215 8.50122 1.23122 -0.120171 -0.0628968 0.990759
5.74025 7.60227 1.17328 -0.103713 -0.0852699 0.990945
4.6818 7.61115 1.0765 -0.0750051 -0.0803842 0.993938
3.62098 7.61177 1.05294 0.0137451 -0.0849613 0.996289
2.49203 7.60101 1.13536 0.106974 -0.0915848 0.990035
2.25732 7.59726 1.1662 0.131137 -0.0865967 0.987575
2.25958 6.70439 1.06173 0.130865 -0.118135 0.984337
3.36497 6.71889 0.971914 0.0742117 -0.143116 0.98692
4.4668 6.72078 0.97109 -0.0536769 -0.129748 0.990093
5.50968 6.71139 1.0441 -0.0964676 -0.120715 0.987989
5.77395 6.70787 1.07008 -0.0987138 -0.116877 0.988228
5.81537 5.81596 0.952734 -0.108425 -0.155424 0.98188
4.69029 5.83307 0.848047 -0.0810923 -0.167212 0.98258
3.66196 5.83764 0.814623 0.0391041 -0.178519 0.983159
2.61625 5.82224 0.897795 0.0925291 -0.159322 0.982881
2.2294 5.81517 0.936087 0.107369 -0.156754 0.981784
2.20529 4.93112 0.78083 0.0936564 -0.182324 0.978768
3.22447 4.94967 0.69172 0.0893879 -0.173994 0.980681
4.41723 4.95566 0.666372 -0.0705494 -0.185597 0.98009
5.44474 4.93786 0.760318 -0.0839209 -0.189384 0.97831
5.76242 4.9314 0.79339 -0.105489 -0.185727 0.976923
5.34201 29.9246 1.71629 -0.663915 -0.295316 0.687026
4.39918 30.0878 1.3166 0.225322 -0.602219 0.765873
3.42622 30.0108 1.59938 0.202467 -0.272134 0.940718
3.21362 29.9806 1.65523 0.302956 -0.135711 0.943292
3.1235 29.961 1.68135 0.302956 -0.135711 0.943292
