1.4509 28.4915 2.07305 0.559235 -0.13995 0.817111
1.83605 29.4786 2.02712 0.620475 -0.491391 0.611183
2.55411 30.2997 1.90063 0.657704 -0.569426 0.491993
3.2594 31.0057 1.79244 -0.160937 -0.551233 0.807255
4.29999 30.8984 1.96139 0.0687742 -0.75909 0.647343
5.27174 30.7953 1.93337 -0.515815 -0.371471 0.771398
5.93959 29.9606 2.12578 -0.687551 -0.31054 0.656382
6.5581 29.0972 2.07735 -0.474314 -0.318989 0.820532
6.50807 28.0822 1.78803 -0.445691 -0.0158308 0.894668
6.40297 27.082 1.68882 -0.305224 -0.0795152 0.948862
6.37568 26.007 1.61319 -0.303653 -0.0192011 0.952589
6.36142 25.007 1.61188 -0.269591 -0.000377915 0.962975
6.34825 23.8219 1.61818 -0.254799 -0.000416738 0.966994
6.37401 22.8068 1.6229 -0.264305 -0.000458953 0.964439
6.36177 21.7992 1.62556 -0.264535 0.000335399 0.964376
6.35446 20.7745 1.62028 -0.265136 -0.00614172 0.964191
6.34943 19.7549 1.61208 -0.255096 -0.008053 0.966882
6.33892 18.5715 1.59263 -0.231369 -0.015869 0.972732
6.31933 17.5246 1.55476 -0.212788 -0.0372466 0.976388
6.29456 16.5079 1.5216 -0.186583 -0.0235884 0.982142
6.29901 15.3342 1.4906 -0.1926 -0.0328245 0.980728
6.30026 14.2112 1.44533 -0.168758 -0.0333728 0.984719
6.29592 13.1058 1.41392 -0.184547 -0.024617 0.982514
6.28463 12.0986 1.38602 -0.170623 -0.037707 0.984615
6.32378 11.0472 1.35937 -0.160546 -0.032257 0.9865
6.31644 9.82655 1.31134 -0.155314 -0.041524 0.986992
6.31176 8.70917 1.25086 -0.166419 -0.0494664 0.984647
6.32131 7.56482 1.16979 -0.17529 -0.106159 0.978559
6.34714 6.53776 1.04848 -0.156292 -0.131797 0.978878
6.34351 5.5073 0.894109 -0.157058 -0.163475 0.973891
6.33162 4.46537 0.68519 -0.174471 -0.228253 0.957827
5.80519 3.94573 0.482491 -0.0983048 -0.251606 0.962824
4.81846 4.18396 0.458364 -0.0682022 -0.221203 0.97283
3.82255 4.28488 0.443043 0.0109115 -0.197796 0.980183
2.82849 4.13863 0.468836 0.0659041 -0.217771 0.97377
1.80365 3.90785 0.508013 0.122629 -0.240348 0.962868
1.67284 4.92612 0.772545 0.148705 -0.203453 0.967569
1.68091 6.0691 0.968901 0.155533 -0.142225 0.977539
1.6416 7.21575 1.1312 0.16583 -0.120221 0.978798
1.70022 8.24285 1.22144 0.18988 -0.0723782 0.979136
1.67907 9.37109 1.30889 0.172114 -0.0602209 0.983216
1.66454 10.3949 1.37553 0.215232 -0.042947 0.975618
1.69202 11.5045 1.41702 0.216862 -0.0401627 0.975376
1.66917 12.6232 1.45667 0.218049 -0.0408951 0.975044
1.6411 13.7502 1.50223 0.206994 -0.0454433 0.977286
1.65802 14.8178 1.54315 0.228521 -0.0398475 0.972717
1.63302 15.9274 1.6012 0.251797 -0.0415145 0.966889
1.64904 16.9389 1.64118 0.261432 -0.0557532 0.96361
1.63163 17.9401 1.68794 0.259771 -0.0446346 0.964543
1.6118 18.993 1.73848 0.292488 -0.0587729 0.954385
1.62227 20.0792 1.77985 0.331746 -0.0318124 0.942769
1.58582 21.0919 1.81152 0.326297 -0.0161896 0.945017
1.57412 22.2403 1.82958 0.33129 -0.0178336 0.943098
1.5779 23.2546 1.84806 0.355275 -0.0034878 0.934748
1.60264 24.299 1.83595 0.355481 0.0108428 0.934621
1.57923 25.3149 1.83097 0.358116 0.0230366 0.933393
1.54061 26.3525 1.83159 0.358702 0.0145594 0.933307
1.47301 27.381 1.87669 0.46607 -0.0624296 0.882542
1.45202 28.2989 2.03929 0.559235 -0.13995 0.817111
0.554797 28.1722 2.60374 0.513333 -0.242443 0.823232
0.680114 29.0818 2.98555 0.589567 -0.535402 0.604777
1.42501 29.8637 2.94115 0.640464 -0.589537 0.492191
2.20098 30.552 2.90354 0.575876 -0.728727 0.370572
2.98682 31.202 2.8188 0.628143 -0.76711 0.127999
3.98572 31.4769 2.88173 -0.0214928 -0.877252 0.479549
5.04591 31.4086 2.85604 -0.170932 -0.955238 0.241458
5.92804 30.8865 2.89126 -0.67691 -0.627115 0.385382
6.73043 30.2385 2.99203 -0.528643 -0.571852 0.627313
7.42225 29.4689 2.89978 -0.528811 -0.486417 0.694924
7.45174 28.3918 2.407 -0.541734 -0.214011 0.812809
7.43408 27.3217 2.12917 -0.440277 -0.215852 0.87153
7.41509 26.3343 1.98113 -0.348646 -0.0879812 0.933012
7.40214 25.3068 1.93678 -0.326966 -0.0271726 0.944629
7.39905 24.1795 1.91847 -0.282756 -0.00295183 0.959187
7.38033 23.1407 1.91361 -0.286309 0.00167809 0.958135
7.41069 22.1175 1.92408 -0.283137 0.000894231 0.959079
7.37225 21.0978 1.90766 -0.277429 -0.00698672 0.960721
7.40691 19.984 1.90289 -0.269248 -0.0197505 0.962865
7.38434 18.8566 1.86581 -0.253137 -0.0325475 0.96688
7.37431 17.7622 1.82144 -0.242338 -0.0500826 0.968898
7.34922 16.7386 1.75949 -0.2275 -0.0503033 0.972471
7.36717 15.6691 1.72056 -0.206651 -0.0373741 0.977692
7.35911 14.6133 1.67442 -0.200323 -0.0442154 0.978732
7.36641 13.5824 1.63621 -0.195625 -0.0351163 0.980046
7.36022 12.411 1.59643 -0.189843 -0.0324799 0.981277
7.36638 11.3407 1.56262 -0.188079 -0.031721 0.981642
7.3711 10.1975 1.52275 -0.189885 -0.0377993 0.981078
7.37204 9.16578 1.4758 -0.182692 -0.0539262 0.981689
7.39506 7.96404 1.40668 -0.185168 -0.0673381 0.980392
7.39367 6.90394 1.29944 -0.206487 -0.111063 0.972126
7.38593 5.85615 1.13929 -0.181729 -0.153642 0.971272
7.38543 4.75926 0.938668 -0.174788 -0.193594 0.965386
7.38134 3.74939 0.713672 -0.192321 -0.248701 0.949295
7.3662 2.7556 0.422593 -0.173722 -0.307553 0.935507
6.80356 2.44142 0.216399 -0.18044 -0.307658 0.934231
5.76364 2.87549 0.180362 -0.104446 -0.264919 0.958597
4.67976 3.15643 0.180031 -0.0665514 -0.299051 0.951914
3.6895 3.26086 0.186612 0.0220392 -0.287134 0.957637
2.71166 3.05092 0.182738 0.0555895 -0.277929 0.958992
1.7299 2.76798 0.201869 0.149839 -0.283342 0.947002
0.7326 2.32145 0.24184 0.160538 -0.307497 0.937909
0.632054 3.30028 0.568907 0.183311 -0.292323 0.938586
0.633542 4.32199 0.826606 0.1721 -0.211224 0.962103
0.626823 5.45068 1.05609 0.163474 -0.183696 0.969295
0.612206 6.56029 1.25142 0.191906 -0.161432 0.968045
0.619888 7.56993 1.37906 0.210014 -0.102134 0.972346
0.635201 8.66178 1.47502 0.206687 -0.083816 0.97481
0.62548 9.72668 1.56624 0.213509 -0.0770342 0.973899
0.612114 10.7408 1.63467 0.239673 -0.0556546 0.969257
0.627246 11.8637 1.67884 0.240223 -0.0381196 0.969968
0.601314 12.9537 1.72438 0.267257 -0.0352181 0.962981
0.606749 13.9885 1.77338 0.269586 -0.0566109 0.961311
0.611087 14.9923 1.82987 0.2764 -0.0547477 0.959477
0.606063 16.1256 1.89515 0.277576 -0.0539494 0.959186
0.598151 17.2569 1.96414 0.2939 -0.0588625 0.954022
0.577981 18.3293 2.04046 0.314129 -0.0626829 0.947309
0.594367 19.5264 2.11199 0.331038 -0.0588415 0.941781
0.601086 20.633 2.16412 0.349399 -0.0365515 0.936258
0.578819 21.6386 2.20531 0.367735 -0.0260563 0.929548
0.566708 22.6958 2.23516 0.376664 -0.0131554 0.926257
0.584937 23.7335 2.23517 0.371904 0.00269595 0.928267
0.577528 24.753 2.22991 0.368476 0.00889364 0.929595
0.572636 25.807 2.21882 0.373545 0.0110553 0.927545
0.563141 26.8747 2.28462 0.394178 -0.176696 0.901888
0.542077 27.8541 2.51618 0.502989 -0.235345 0.831478
0.554624 28.1674 2.60245 0.511929 -0.244816 0.823399
1.92436 27.8643 1.69285 0.497322 -0.0946866 0.862383
2.97311 27.9626 1.24488 0.280416 0.0339155 0.959279
4.01529 27.9973 1.09935 -0.0563276 0.122809 0.990831
5.0256 27.9872 1.30003 -0.256377 0.0881862 0.962546
5.93205 27.9341 1.55679 -0.340704 0.00954316 0.940122
5.83436 26.9681 1.49156 -0.280009 -0.0828496 0.956416
4.70719 26.9969 1.28428 -0.0755219 0.0236524 0.996864
3.50449 26.9846 1.2369 -0.0403284 0.17152 0.984355
2.4706 26.9448 1.45628 0.290208 0.0513359 0.955586
2.07311 26.9205 1.61654 0.364765 0.0285769 0.930661
2.084 25.983 1.64143 0.314746 0.0296147 0.948714
3.07258 26.0145 1.37878 0.166913 0.045534 0.98492
4.09716 26.0356 1.2841 0.0180461 -0.0344506 0.999243
5.27749 26.0314 1.3329 -0.138964 0.0284061 0.98989
5.78947 26.0208 1.4474 -0.266822 -0.0132963 0.963654
5.64098 25.0819 1.44093 -0.204932 0.021203 0.978546
4.59362 25.0887 1.27851 -0.0765803 0.0263902 0.996714
3.53917 25.0828 1.31451 0.113572 0.00617287 0.993511
2.37864 25.0634 1.55628 0.277692 0.00379253 0.960663
2.16408 25.0589 1.62034 0.315713 0.00849818 0.948817
2.15255 24.1356 1.63881 0.308294 -0.00319692 0.951286
3.26977 24.1498 1.36223 0.168253 0.00449595 0.985734
4.3303 24.1558 1.26493 0.024112 -0.00570785 0.999693
5.49877 24.1556 1.41794 -0.220049 -0.00172473 0.975487
5.71761 24.1549 1.4673 -0.220042 -0.0017269 0.975489
5.73802 23.2314 1.46682 -0.190327 -0.0175696 0.981564
4.58441 23.2305 1.31238 -0.0691595 0.0458297 0.996552
3.51809 23.2271 1.32263 0.0776962 -0.00698537 0.996953
2.53575 23.2185 1.53122 0.257502 0.0106144 0.966219
2.10405 23.2135 1.65635 0.289583 0.00845577 0.957116
2.34877 22.2972 1.58385 0.286874 -0.0136532 0.957871
3.40873 22.3043 1.35268 0.168004 -0.00351639 0.98578
4.43683 22.3082 1.31096 -0.0460244 -0.00724145 0.998914
5.48378 22.3098 1.41519 -0.199852 -0.0251353 0.979504
5.64662 22.3098 1.44841 -0.199852 -0.0251354 0.979504
5.82356 21.3915 1.47982 -0.22836 -0.0096291 0.973529
4.79618 21.3922 1.3269 -0.098733 0.00165801 0.995113
3.74578 21.3885 1.30668 0.0687662 -0.0349422 0.997021
2.68178 21.3818 1.49224 0.23796 -0.0199421 0.97107
2.19661 21.3773 1.62364 0.287532 0.00146408 0.95777
2.14876 20.4606 1.60335 0.304993 -0.0349821 0.951712
3.13464 20.4687 1.38076 0.171375 -0.0102044 0.985153
4.24162 20.473 1.2949 0.018077 0.0195081 0.999646
5.32833 20.474 1.3947 -0.14175 -0.0002727 0.989902
5.83649 20.4746 1.4836 -0.247955 -0.0121313 0.968696
5.75363 19.561 1.47013 -0.173774 0.0122496 0.984709
4.75401 19.561 1.32204 -0.0754824 0.0227882 0.996887
3.72608 19.5574 1.3171 0.097677 -0.0151593 0.995103
2.61055 19.5503 1.46953 0.190169 -0.00655834 0.98173
2.23091 19.5462 1.57238 0.281816 -0.0156756 0.95934
2.15574 18.6365 1.56124 0.243655 0.000867564 0.969862
3.15915 18.6447 1.37726 0.146661 0.0136801 0.989092
4.18132 18.6501 1.29934 0.0099833 -0.0173288 0.9998
5.26282 18.6505 1.39633 -0.155108 0.00441744 0.987888
5.75356 18.6493 1.47484 -0.162822 -0.0140703 0.986555
5.63339 17.7412 1.43343 -0.153381 -0.0316345 0.987661
4.60138 17.7414 1.31379 -0.0577554 -0.0250534 0.998016
3.57181 17.7383 1.31867 0.0685607 0.014624 0.99754
2.56462 17.7328 1.46591 0.159307 -0.013995 0.98713
2.21574 17.7293 1.53641 0.212863 -0.0350132 0.976455
2.24205 16.8243 1.49815 0.197922 -0.0429708 0.979275
3.29063 16.8328 1.34309 0.109809 -0.000369744 0.993953
4.35011 16.8349 1.28986 -0.0431154 0.0265367 0.998718
5.42332 16.835 1.3865 -0.107396 -0.0277854 0.993828
5.6526 16.8345 1.41252 -0.18003 -0.0284924 0.983248
5.71477 15.9292 1.40835 -0.128902 -0.0287014 0.991242
4.68318 15.9309 1.31143 -0.0643895 0.00844877 0.997889
3.61047 15.9289 1.29759 0.0462548 -0.0300799 0.998477
2.49989 15.9221 1.42644 0.148483 -0.0276441 0.988529
2.18276 15.9195 1.47767 0.194986 -0.0462292 0.979716
2.36098 15.0195 1.41746 0.153537 -0.0301276 0.987684
3.54146 15.0271 1.2835 0.0536262 0.00565695 0.998545
4.55491 15.0289 1.28992 -0.0602481 -0.0185031 0.998012
5.60377 15.0273 1.37802 -0.118896 -0.00282234 0.992903
5.68734 15.027 1.38802 -0.117467 -0.0208214 0.992859
5.65563 14.1262 1.35152 -0.120638 -0.0584041 0.990977
4.63165 14.1279 1.26421 -0.0664981 -0.040186 0.996977
3.63191 14.1267 1.25235 0.0553954 -0.0421144 0.997576
2.57834 14.121 1.35446 0.106262 -0.0312712 0.993846
2.23496 14.1183 1.403 0.154809 -0.0377417 0.987223
2.22298 13.2176 1.36892 0.135706 -0.0151638 0.990633
3.28015 13.2254 1.24917 0.0872307 -0.0293085 0.995757
4.27996 13.2294 1.21709 -0.0592414 -0.0210854 0.998021
5.34205 13.2277 1.28932 -0.101096 -0.0327281 0.994338
5.70615 13.2266 1.3285 -0.125985 -0.0335147 0.991466
5.65079 12.3267 1.2977 -0.127126 -0.0352677 0.991259
4.64177 12.3291 1.20768 -0.053522 -0.0421867 0.997675
3.61383 12.3268 1.2004 0.0454065 -0.0346989 0.998366
2.56262 12.3206 1.28909 0.148071 -0.0275417 0.988593
2.2416 12.3172 1.34089 0.167537 -0.0347132 0.985254
2.26803 11.419 1.3104 0.148664 -0.0292946 0.988454
3.34078 11.4279 1.17901 0.0636171 -0.0122028 0.9979
4.36036 11.4305 1.17019 -0.0458781 -0.0434661 0.998001
5.41901 11.4285 1.24996 -0.0968763 -0.0234834 0.995019
5.76301 11.4273 1.28595 -0.135892 -0.0372862 0.990022
5.72009 10.5293 1.25201 -0.113837 -0.0356133 0.992861
4.62135 10.5326 1.15216 -0.0877263 -0.0444428 0.995153
3.47518 10.5316 1.13321 0.0683884 -0.0434969 0.99671
2.4692 10.5234 1.24651 0.133877 -0.053871 0.989533
2.25594 10.5213 1.27524 0.148793 -0.0505525 0.987575
2.22187 9.62418 1.23155 0.163152 -0.0609404 0.984717
3.35446 9.63555 1.1001 0.0821002 -0.0492178 0.995408
4.43614 9.63806 1.09964 -0.0634036 -0.0356097 0.997352
5.5064 9.63367 1.18922 -0.0949635 -0.0497859 0.994235
5.61191 9.63313 1.19927 -0.111617 -0.0461386 0.99268
5.75298 8.73606 1.17302 -0.123226 -0.0567661 0.990754
4.73196 8.74266 1.06952 -0.0860467 -0.0569324 0.994663
3.73039 8.74326 1.03659 0.0107062 -0.0758902 0.997059
2.67948 8.73513 1.11525 0.112208 -0.0587499 0.991947
2.22198 8.72951 1.17227 0.145671 -0.0668016 0.987075
2.24985 7.83694 1.10162 0.127971 -0.0894732 0.987734
3.27599 7.84864 1.00458 0.0776069 -0.0697928 0.994538
4.28725 7.85227 0.98586 -0.0420552 -0.0663863 0.996907
5.29969 7.84598 1.06241 -0.0834741 -0.0857653 0.992812
5.78633 7.84135 1.11467 -0.121047 -0.0801663 0.989404
5.64164 6.95338 0.997833 -0.0938276 -0.11988 0.988345
4.64383 6.96166 0.926899 -0.0805363 -0.133401 0.987784
3.60955 6.96323 0.903337 0.0244226 -0.125812 0.991753
2.54563 6.95236 0.974208 0.0798582 -0.116895 0.989928
2.28926 6.94843 1.00106 0.107233 -0.108156 0.988334
2.35662 6.06398 0.874015 0.117171 -0.144764 0.982504
3.53088 6.08088 0.780273 0.0467559 -0.158015 0.986329
4.59077 6.07964 0.797113 -0.064561 -0.156619 0.985547
5.70728 6.06534 0.889241 -0.106851 -0.134424 0.985146
5.78488 5.18059 0.756788 -0.11636 -0.172459 0.97812
4.77686 5.19951 0.655903 -0.0902044 -0.1762 0.980213
3.74542 5.20581 0.617219 0.0347609 -0.198893 0.979405
2.71492 5.19018 0.694371 0.0964004 -0.17441 0.979943
2.21455 5.18024 0.742848 0.11376 -0.188617 0.975439
1.99402 28.8778 1.69562 0.596074 0.00194658 0.802927
2.92809 28.9953 1.34016 0.293627 -0.139284 0.945718
4.06089 29.124 1.06372 0.191152 -0.0351061 0.980933
5.04631 29.0694 1.23521 -0.480864 0.0563733 0.874981
5.98264 28.9275 1.67914 -0.494349 -0.276601 0.824082
5.27967 30.1201 1.60606 -0.673285 -0.267586 0.689264
4.31199 30.2714 1.28248 0.0876575 -0.637254 0.765652
3.27946 30.2188 1.47976 0.20421 -0.214507 0.955136
3.10574 30.1774 1.53144 0.388302 -0.223652 0.893981
3.03788 30.1557 1.55931 0.448814 -0.345205 0.824257
