1.40389 28.6603 2.00136 0.676941 -0.133201 0.723884
1.78074 29.6663 1.9723 0.719068 -0.513151 0.458705
2.61927 30.4731 1.86354 0.655547 -0.566072 0.499821
3.29226 31.1746 1.77256 0.156354 -0.892225 0.27094
4.30403 31.0099 1.92189 -0.137849 -0.75984 0.635327
5.31611 30.9069 1.86032 -0.492145 -0.481807 0.719849
5.92179 30.1511 2.074 -0.671672 -0.38889 0.630572
6.51123 29.3686 2.07212 -0.492665 -0.501387 0.711261
6.56713 28.4113 1.74052 -0.481525 -0.134289 0.854796
6.41263 27.2386 1.60893 -0.335008 -0.0792561 0.938687
6.37297 26.1668 1.52499 -0.287333 -0.0288935 0.957195
6.34179 25.1604 1.51719 -0.265687 -0.00865309 0.964021
6.37669 24.0906 1.53834 -0.247807 0.00871585 0.96877
6.35381 23.011 1.52599 -0.260943 -0.0135237 0.965241
6.36563 21.8721 1.53368 -0.270302 0.00881214 0.962735
6.35316 20.8442 1.53571 -0.25202 -0.00127049 0.967721
6.3359 19.7834 1.522 -0.255752 -0.0139929 0.966641
6.32763 18.6406 1.50332 -0.222707 -0.00663366 0.974714
6.32495 17.6228 1.46964 -0.223387 -0.0440688 0.973733
6.27843 16.6063 1.43129 -0.202725 -0.0321953 0.978706
6.30614 15.4891 1.40863 -0.182736 -0.0212304 0.982811
6.26458 14.3213 1.36295 -0.187485 -0.0383083 0.981519
6.28515 13.1987 1.33157 -0.162178 -0.0239119 0.986472
6.29822 12.1244 1.30207 -0.176595 -0.038379 0.983535
6.31622 11.1029 1.2722 -0.138771 -0.0400376 0.989515
6.31853 10.1031 1.23749 -0.154099 -0.0407826 0.987213
6.28546 9.07823 1.18617 -0.169745 -0.0500775 0.984215
6.30242 7.97059 1.11249 -0.170635 -0.0809447 0.982004
6.32522 6.96205 1.00936 -0.170348 -0.115307 0.978614
6.30694 5.92553 0.871756 -0.155898 -0.146686 0.976801
6.31928 4.81082 0.671701 -0.168052 -0.21682 0.961638
5.85449 4.25407 0.47637 -0.110286 -0.235763 0.965458
4.80238 4.5301 0.443121 -0.0811464 -0.199531 0.976484
3.74214 4.57813 0.41368 0.031472 -0.164733 0.985836
2.68651 4.38144 0.439161 0.0741882 -0.222705 0.971904
1.69461 4.35157 0.549289 0.146749 -0.250173 0.957015
1.67885 5.32936 0.758601 0.134812 -0.1838 0.973675
1.6785 6.33706 0.918764 0.158553 -0.130741 0.97857
1.68442 7.41648 1.05352 0.186006 -0.117996 0.975433
1.69747 8.51758 1.15779 0.18008 -0.0661122 0.981428
1.66501 9.66244 1.24438 0.183404 -0.0743411 0.9802
1.66883 10.6693 1.30331 0.20608 -0.030312 0.978065
1.66962 11.6762 1.34493 0.205356 -0.043133 0.977736
1.66564 12.6824 1.3702 0.218183 -0.0202294 0.975698
1.68893 13.8456 1.40647 0.211319 -0.0523101 0.975947
1.6736 14.9115 1.45688 0.235874 -0.0418173 0.970883
1.6732 16.0002 1.50271 0.244394 -0.0341825 0.968704
1.66483 17.0999 1.55273 0.257393 -0.0601659 0.964432
1.65001 18.1388 1.60326 0.252252 -0.0327742 0.967066
1.62885 19.1425 1.65175 0.291982 -0.0441283 0.955324
1.63493 20.1785 1.68962 0.332937 -0.0218081 0.942697
1.59559 21.213 1.7237 0.315003 -0.0192773 0.948895
1.60545 22.337 1.73366 0.317329 -0.0162447 0.948112
1.60024 23.465 1.7501 0.35628 8.93982e-05 0.934379
1.61033 24.6148 1.73785 0.353873 0.00839748 0.935232
1.60423 25.62 1.72004 0.368252 0.0168974 0.929562
1.53604 26.7454 1.73473 0.403196 0.00936115 0.914949
1.45854 27.7655 1.8126 0.538875 -0.15817 0.827403
1.40669 28.5288 1.97455 0.651234 -0.146668 0.743738
0.530631 28.3232 2.56484 0.517082 -0.262935 0.81455
0.805644 29.343 2.95966 0.547309 -0.533708 0.644638
1.57791 30.1541 2.93749 0.607003 -0.614336 0.504122
2.4725 30.8534 2.84153 0.670717 -0.68998 0.264414
3.31436 31.4927 2.8343 0.32232 -0.938282 0.123471
4.31664 31.5805 2.85117 0.03732 -0.878896 0.475551
5.3389 31.3874 2.82317 -0.414213 -0.876957 0.243667
6.21628 30.7548 2.91803 -0.598346 -0.618127 0.502989
7.06446 30.0863 2.99346 -0.501203 -0.539182 0.676021
7.45826 29.2291 2.65881 -0.53212 -0.446091 0.719619
7.46943 28.1664 2.26138 -0.52016 -0.211496 0.827352
7.40896 27.0393 1.96147 -0.392248 -0.16759 0.904464
7.40508 25.9505 1.86407 -0.335184 -0.0416083 0.941233
7.38827 24.9403 1.83432 -0.310703 -0.0263377 0.95012
7.39862 23.7878 1.83002 -0.285596 0.00046853 0.95835
7.39579 22.7743 1.83022 -0.286272 0.00206875 0.958146
7.396 21.732 1.82987 -0.279123 -0.00105848 0.960255
7.3983 20.717 1.82364 -0.273733 -0.00885686 0.961765
7.38647 19.6173 1.80106 -0.267688 -0.0272322 0.963121
7.3923 18.5928 1.77078 -0.253423 -0.032738 0.966799
7.37093 17.5574 1.72423 -0.238005 -0.0506957 0.969914
7.35361 16.5586 1.66504 -0.225823 -0.0497567 0.972897
7.37426 15.4601 1.62721 -0.207709 -0.0405593 0.977349
7.35224 14.3397 1.57585 -0.20279 -0.0382687 0.978474
7.36454 13.2 1.53776 -0.194975 -0.0323388 0.980275
7.37962 11.9581 1.4995 -0.188519 -0.0326962 0.981525
7.37045 10.9083 1.46301 -0.188388 -0.0342605 0.981497
7.38114 9.79619 1.42214 -0.187676 -0.0429657 0.981291
7.35521 8.62708 1.35528 -0.185072 -0.0594258 0.980927
7.38335 7.49015 1.27742 -0.194877 -0.0894718 0.976706
7.36953 6.21457 1.10386 -0.190099 -0.15805 0.96896
7.3888 5.06826 0.912105 -0.165841 -0.185019 0.968631
7.38008 4.077 0.706696 -0.173329 -0.224746 0.958767
7.35445 2.93061 0.388009 -0.183868 -0.286196 0.940364
6.72489 2.7906 0.218908 -0.187756 -0.282989 0.940558
5.6726 3.2187 0.179928 -0.0848556 -0.257587 0.962521
4.65339 3.49185 0.183285 -0.058601 -0.250822 0.966238
3.5861 3.5014 0.176124 0.0277903 -0.275778 0.960803
2.47472 3.30771 0.181858 0.0743143 -0.274451 0.958561
1.51772 2.97829 0.213638 0.1726 -0.275776 0.945593
0.630298 2.67601 0.286768 0.161461 -0.303421 0.939075
0.622951 3.84943 0.62609 0.185473 -0.235257 0.954071
0.613528 4.82981 0.846639 0.165081 -0.198179 0.966164
0.614307 5.96037 1.05962 0.180105 -0.163178 0.970018
0.616409 7.02199 1.22875 0.197348 -0.138943 0.970437
0.618764 8.20833 1.35168 0.205597 -0.0877804 0.974692
0.615634 9.2366 1.44164 0.213505 -0.0798719 0.973669
0.621411 10.2849 1.52041 0.226716 -0.0652274 0.971774
0.61933 11.3166 1.57409 0.234931 -0.0393186 0.971217
0.599727 12.3461 1.61729 0.241179 -0.0347529 0.969857
0.61941 13.4149 1.65366 0.258183 -0.043098 0.96513
0.604804 14.4869 1.71497 0.27456 -0.0579226 0.959824
0.622356 15.5624 1.77289 0.271871 -0.0505873 0.960996
0.612863 16.7407 1.84196 0.283833 -0.0548379 0.957304
0.605005 17.8383 1.9111 0.297119 -0.0631211 0.952747
0.588918 18.9178 1.98455 0.318918 -0.0636818 0.94564
0.601964 20.065 2.0494 0.33443 -0.053827 0.940882
0.57587 21.2283 2.10278 0.356147 -0.0225824 0.934157
0.596939 22.3696 2.12619 0.365785 -0.0180641 0.930516
0.586582 23.4004 2.14373 0.36643 -0.00391996 0.930415
0.589378 24.4217 2.13699 0.368549 0.0102197 0.929552
0.587479 25.5671 2.12433 0.368504 0.0090393 0.929582
0.558576 26.6499 2.15247 0.398792 -0.0485741 0.915754
0.534509 27.8239 2.40738 0.511272 -0.23236 0.827169
0.530173 28.1431 2.507 0.517082 -0.262934 0.81455
2.03472 28.0525 1.52987 0.463938 -0.0622327 0.883679
2.99433 28.1579 1.14444 0.340555 -0.0475837 0.93902
4.04699 28.1966 0.972541 -0.014879 0.149996 0.988575
5.12561 28.1647 1.19319 -0.291857 0.0904166 0.952179
5.95893 28.0959 1.46112 -0.354186 0.0170344 0.93502
5.87203 27.1302 1.42495 -0.277711 -0.0635369 0.958561
4.80372 27.1779 1.18818 -0.184754 0.0288492 0.982361
3.70962 27.1692 1.11163 -0.0267128 0.188116 0.981783
2.62035 27.1349 1.30045 0.236204 0.169428 0.956819
2.18506 27.1037 1.45631 0.387707 0.0461431 0.920627
2.12263 26.1595 1.52753 0.316929 0.0197999 0.948243
3.24281 26.1984 1.26506 0.114693 0.0492356 0.99218
4.31095 26.2136 1.19167 0.0132173 -0.00423472 0.999904
5.43711 26.1981 1.27546 -0.202505 -0.0130929 0.979194
5.68058 26.1908 1.33906 -0.249798 -0.0197565 0.968096
5.65657 25.2572 1.34893 -0.219885 0.00829019 0.975491
4.56853 25.2689 1.16843 -0.0426981 0.0278694 0.998699
3.51417 25.2647 1.226 0.150583 0.00450791 0.988587
2.49571 25.2437 1.43177 0.296595 0.0149166 0.954887
2.15174 25.235 1.53806 0.304964 -0.000465378 0.952364
2.19239 24.3147 1.53154 0.322476 0.00167388 0.946576
3.23677 24.3298 1.27237 0.176866 -0.0252747 0.98391
4.23861 24.3348 1.18132 -0.00852698 0.00872635 0.999926
5.27636 24.3346 1.28968 -0.170397 -0.00904181 0.985334
5.77795 24.3316 1.39103 -0.213808 -0.00721861 0.976849
5.76814 23.4127 1.38472 -0.208044 -0.0172902 0.977967
4.63017 23.4138 1.22283 -0.0717938 0.0340041 0.99684
3.53394 23.411 1.22862 0.113286 0.0180243 0.993399
2.48487 23.4019 1.44731 0.238654 -0.0056427 0.971088
2.21583 23.3992 1.5283 0.32773 -0.00175716 0.94477
2.16218 22.4844 1.55198 0.295397 -0.0123395 0.955295
3.17196 22.4918 1.29717 0.159824 -0.0213576 0.986914
4.27901 22.4968 1.21994 -0.033368 0.0016093 0.999442
5.33027 22.498 1.30426 -0.138215 -0.0240251 0.990111
5.80411 22.4972 1.39579 -0.209975 0.0100217 0.977655
5.8336 21.5831 1.40098 -0.214141 0.017452 0.976647
4.84572 21.5834 1.24465 -0.0940341 0.00126234 0.995568
3.77608 21.5799 1.22602 0.0556104 -0.0313685 0.99796
2.68329 21.5746 1.40757 0.237771 -0.0164822 0.971181
2.11746 21.57 1.55884 0.289735 0.00386977 0.957099
2.32352 20.6595 1.47453 0.279545 -0.0374258 0.959403
3.38356 20.6663 1.25922 0.158193 -0.0358636 0.986757
4.45876 20.67 1.21728 -0.0243001 0.0103419 0.999651
5.54223 20.6709 1.34019 -0.206973 0.0186882 0.978168
5.7815 20.6705 1.39083 -0.225387 0.0116375 0.9742
5.6652 19.7606 1.36656 -0.170507 0.0130533 0.98527
4.62838 19.7608 1.22529 -0.0686252 0.0246577 0.997338
3.57555 19.7581 1.24589 0.104182 0.00661075 0.994536
2.487 19.7505 1.41437 0.20987 -0.0298995 0.977272
2.28913 19.7484 1.4673 0.285796 -0.0113157 0.958224
2.17386 18.8381 1.47633 0.280765 -0.0397993 0.958951
3.19752 18.8489 1.28947 0.131776 0.0187445 0.991102
4.20279 18.853 1.21136 -0.0223941 0.0139343 0.999652
5.25816 18.8522 1.3058 -0.140024 0.0128135 0.990065
5.76164 18.8517 1.38749 -0.187795 -0.0092523 0.982165
5.77079 17.9455 1.37891 -0.169997 -0.0301844 0.984982
4.73004 17.9458 1.23525 -0.093601 -0.00944872 0.995565
3.61095 17.9439 1.2283 0.107699 -0.00172891 0.994182
2.52786 17.936 1.39173 0.158535 -0.0249143 0.987039
2.20209 17.9327 1.45973 0.204843 -0.0117131 0.978725
2.38745 17.0327 1.39422 0.185027 -0.0108604 0.982673
3.38387 17.0397 1.24773 0.09827 -0.0127693 0.995078
4.38461 17.0442 1.20413 -0.0567932 -0.0176776 0.998229
5.41904 17.0436 1.29955 -0.117952 -0.00692167 0.992995
5.6866 17.0427 1.33785 -0.156019 -0.0332688 0.987194
5.56988 16.1418 1.3059 -0.137425 -0.027675 0.990125
4.56752 16.1433 1.21932 -0.0538567 -3.2874e-05 0.998549
3.49632 16.1409 1.22199 0.0770249 -0.0140308 0.99693
2.33587 16.1327 1.37567 0.170658 -0.0156186 0.985207
2.26868 16.132 1.38748 0.196337 -0.0193071 0.980346
2.30295 15.2346 1.34688 0.163784 -0.0360945 0.985836
3.32411 15.2414 1.21586 0.0932615 -0.019127 0.995458
4.38001 15.2442 1.19602 -0.0529448 -0.0275645 0.998217
5.45604 15.2441 1.27509 -0.0840355 -0.0162789 0.99633
5.69658 15.2434 1.30158 -0.139057 -0.0101796 0.990232
5.69289 14.3454 1.28224 -0.123411 -0.0511201 0.991038
4.68032 14.3477 1.18896 -0.0702725 -0.0335502 0.996963
3.54518 14.3452 1.18278 0.0835359 -0.0319737 0.995992
2.42948 14.3378 1.29879 0.135287 -0.0401028 0.989995
2.39063 14.3375 1.30409 0.135287 -0.0401029 0.989994
2.23174 13.4398 1.28525 0.146853 -0.0408945 0.988313
3.25015 13.4464 1.17776 0.0739622 -0.0416512 0.996391
4.32941 13.451 1.14189 -0.0262367 -0.0587157 0.99793
5.38795 13.4498 1.21731 -0.112409 -0.0333569 0.993102
5.66911 13.4488 1.25026 -0.12956 -0.0329818 0.991023
5.6522 12.5529 1.2179 -0.11252 -0.0220057 0.993406
4.50085 12.5552 1.12403 -0.0555637 -0.0309894 0.997974
3.38273 12.5521 1.13099 0.0394098 -0.0126678 0.999143
2.36805 12.5449 1.23914 0.146736 -0.0391032 0.988403
2.22194 12.5435 1.2624 0.162394 -0.031187 0.986233
2.3528 11.6495 1.2208 0.174358 -0.0297322 0.984233
3.5113 11.6581 1.09264 0.0428397 -0.0376571 0.998372
4.56759 11.6598 1.10205 -0.0353986 -0.0284389 0.998969
5.66298 11.6572 1.19887 -0.120818 -0.0128714 0.992591
5.73844 11.6569 1.20805 -0.120818 -0.0128717 0.992591
5.76108 10.7622 1.1823 -0.11479 -0.0488643 0.992187
4.62294 10.7657 1.08046 -0.0698598 -0.0414971 0.996693
3.51395 10.7645 1.06004 0.0692568 -0.0177896 0.99744
2.47837 10.7569 1.17278 0.140422 -0.0535832 0.988641
2.21907 10.7544 1.21047 0.156928 -0.0473034 0.986476
2.28637 9.8629 1.14874 0.167137 -0.0646282 0.983813
3.40161 9.87254 1.02343 0.0420505 -0.0414499 0.998255
4.48631 9.87426 1.02532 -0.0661165 -0.0522408 0.996443
5.52819 9.87015 1.11894 -0.101788 -0.0508038 0.993508
5.74626 9.869 1.14122 -0.115447 -0.0482761 0.99214
5.67621 8.97737 1.08725 -0.145241 -0.0525518 0.988
4.67635 8.98305 0.993255 -0.0845413 -0.0543517 0.994937
3.6662 8.9835 0.961467 0.0353157 -0.0340183 0.998797
2.57809 8.97473 1.05464 0.11489 -0.0572098 0.991729
2.30231 8.97138 1.09157 0.134051 -0.0516146 0.989629
2.33255 8.08234 1.02435 0.141102 -0.0841206 0.986415
3.45364 8.09327 0.923602 0.0700247 -0.0726761 0.994894
4.53543 8.09445 0.930839 -0.0731487 -0.064852 0.99521
5.60439 8.08777 1.01933 -0.106759 -0.0795137 0.9911
5.71415 8.08654 1.03366 -0.129888 -0.0778672 0.988466
5.76495 7.1988 0.952441 -0.105899 -0.116805 0.987493
4.70047 7.20773 0.872105 -0.0671744 -0.0923327 0.99346
3.68179 7.20902 0.848438 0.026249 -0.104887 0.994138
2.65683 7.20023 0.908067 0.0862317 -0.119907 0.989033
2.2182 7.19436 0.948967 0.110411 -0.121757 0.9864
2.24794 6.31097 0.837771 0.126025 -0.136054 0.982653
3.27843 6.32703 0.747446 0.074062 -0.155964 0.984982
4.31919 6.33058 0.733084 -0.0389668 -0.153103 0.987442
5.37978 6.31979 0.807478 -0.0951385 -0.128875 0.987087
5.6367 6.31552 0.835741 -0.107415 -0.138778 0.984481
5.77612 5.43324 0.714064 -0.127333 -0.17958 0.975468
4.77916 5.45118 0.615062 -0.0853607 -0.173946 0.981049
3.72152 5.4567 0.579851 0.0208879 -0.164611 0.986137
2.61793 5.44061 0.661452 0.0947894 -0.171007 0.9807
2.25969 5.43321 0.69919 0.108116 -0.166942 0.980021
1.91067 29.0329 1.62461 0.631142 -0.188857 0.752325
2.96024 29.199 1.28452 0.193536 -0.235272 0.952466
3.91144 29.2891 0.943803 0.443478 0.0565786 0.894498
4.86744 29.2658 1.01735 -0.381509 0.0967068 0.919292
5.84287 29.1082 1.54092 -0.51246 -0.150825 0.845362
6.06636 29.0629 1.66832 -0.433111 -0.222587 0.873424
5.28088 30.3308 1.49467 -0.536763 -0.14894 0.830483
4.32749 30.4352 1.25888 0.0607362 -0.527421 0.84743
3.23021 30.3755 1.38305 0.305923 -0.153335 0.939627
3.19129 30.367 1.39434 0.305923 -0.153334 0.939627
3.01343 30.3306 1.4463 0.486098 -0.21241 0.847698
