1.41148 28.8509 1.90245 0.667437 -0.185022 0.714132
1.78775 29.8019 1.92917 0.65171 -0.607064 0.448695
2.55624 30.5285 1.80956 0.718387 -0.440127 0.53871
3.22085 31.3186 1.68365 0.802124 -0.562835 0.199536
4.20651 31.1838 1.8431 -0.0665093 -0.837103 0.535862
5.19969 31.1583 1.77229 -0.27431 -0.539847 0.737937
5.90356 30.3664 2.00883 -0.816316 -0.207248 0.539144
6.48138 29.5344 2.03406 -0.508463 -0.481708 0.713684
6.54811 28.5731 1.6289 -0.412112 -0.139536 0.89561
6.41667 27.5725 1.5482 -0.344378 -0.0339009 0.93692
6.36249 26.5545 1.45585 -0.305927 -0.0438879 0.951043
6.34781 25.5054 1.42208 -0.271186 0.00794206 0.96217
6.32001 24.4155 1.43101 -0.25943 0.00947034 0.965711
6.3479 23.3068 1.44344 -0.261997 -0.0144611 0.96496
6.34718 22.099 1.44023 -0.260892 0.00673258 0.965344
6.34245 21.0361 1.44276 -0.26964 -0.00490595 0.962949
6.33102 19.919 1.43021 -0.246827 -0.000660405 0.96893
6.32821 18.8695 1.41994 -0.239405 -0.0167822 0.970775
6.30354 17.774 1.38719 -0.220642 -0.0409106 0.974496
6.27919 16.7545 1.35317 -0.182175 -0.00841557 0.983228
6.29613 15.7285 1.33135 -0.17847 -0.0212097 0.983717
6.26349 14.5631 1.28325 -0.164571 -0.0224686 0.985833
6.28861 13.5355 1.25673 -0.160585 -0.0235528 0.986708
6.2836 12.3967 1.22371 -0.179457 -0.0264706 0.983404
6.30812 11.3551 1.19354 -0.160189 -0.029232 0.986614
6.28786 10.2568 1.15067 -0.158358 -0.0223147 0.987121
6.29839 9.18934 1.10847 -0.167004 -0.0438048 0.98498
6.31444 8.05039 1.03357 -0.154859 -0.0809155 0.9846
6.3129 6.91476 0.91273 -0.169335 -0.104223 0.980024
6.26086 5.92033 0.776122 -0.168629 -0.14655 0.974715
6.28372 4.855 0.593486 -0.149336 -0.209493 0.966339
5.47213 4.66587 0.446807 -0.106558 -0.236955 0.965659
4.42852 4.90963 0.394332 -0.0719938 -0.188088 0.979193
3.34733 4.87977 0.405206 0.0885026 -0.1808 0.97953
2.31761 4.65007 0.451831 0.099398 -0.201505 0.974431
1.70983 5.19841 0.644642 0.163764 -0.177883 0.970329
1.69666 6.19556 0.810322 0.152413 -0.130282 0.979692
1.70066 7.25644 0.941419 0.153311 -0.124861 0.980219
1.68573 8.42197 1.0673 0.178921 -0.0914945 0.979533
1.69411 9.55602 1.14194 0.17941 -0.0442211 0.98278
1.70672 10.5657 1.19987 0.205562 -0.037915 0.977909
1.72256 11.6784 1.24287 0.197934 -0.0297286 0.979764
1.69562 12.7445 1.28179 0.204134 -0.00888764 0.978903
1.71586 13.8097 1.31343 0.195108 -0.0246294 0.980473
1.70353 14.9294 1.3641 0.229037 -0.0488283 0.972092
1.67708 15.9386 1.41712 0.245508 -0.059738 0.967552
1.68092 16.9889 1.45851 0.259893 -0.0333365 0.965062
1.65315 18.1023 1.51698 0.247653 -0.0255546 0.968416
1.65443 19.1237 1.5563 0.290936 -0.0452742 0.955609
1.63289 20.2899 1.6054 0.333229 -0.0208113 0.942616
1.64288 21.3183 1.62297 0.333939 -0.00395469 0.942538
1.61248 22.335 1.64194 0.34218 -0.00055195 0.939633
1.62536 23.456 1.64891 0.343495 0.00196973 0.939069
1.63705 24.5217 1.63849 0.352989 0.00920921 0.935561
1.62597 25.58 1.62315 0.36475 0.0266314 0.930725
1.57904 26.6235 1.61808 0.384372 0.0157279 0.922702
1.50317 27.8009 1.69491 0.435929 -0.133967 0.889954
1.42166 28.725 1.87829 0.654991 -0.0909049 0.750148
0.546123 28.545 2.52145 0.541555 -0.284116 0.7912
0.570131 27.5639 2.21209 0.507155 -0.209164 0.836088
0.587218 26.5126 2.03723 0.376859 -0.028223 0.925826
0.597217 25.4401 2.02999 0.366997 0.0111678 0.930155
0.597921 24.319 2.04357 0.366928 0.00794953 0.930215
0.595295 23.3192 2.04788 0.369021 -0.00230486 0.929418
0.587945 22.3055 2.03591 0.370481 -0.0186276 0.92865
0.610022 21.2259 1.99924 0.35594 -0.0211509 0.934269
0.586916 20.1751 1.96976 0.336698 -0.0449222 0.940508
0.618984 19.049 1.89387 0.322 -0.0544915 0.945168
0.588758 18.0229 1.8415 0.298881 -0.0552852 0.952688
0.621686 16.9468 1.76577 0.290351 -0.0571655 0.955209
0.608199 15.8089 1.70306 0.282649 -0.0534704 0.957732
0.634473 14.7326 1.63404 0.275626 -0.0565912 0.959598
0.620664 13.6631 1.57721 0.265053 -0.0522809 0.962792
0.615228 12.5369 1.53272 0.242877 -0.0332995 0.969484
0.635416 11.479 1.48966 0.237645 -0.0376352 0.970621
0.625223 10.3166 1.43338 0.235608 -0.0665165 0.969569
0.614435 9.19701 1.35269 0.210776 -0.0809841 0.974161
0.616859 8.06328 1.25182 0.205346 -0.0892438 0.974612
0.645921 7.02551 1.13808 0.19631 -0.132873 0.971313
0.618108 6.02802 0.987042 0.178261 -0.168227 0.969432
0.631758 4.98024 0.786093 0.168881 -0.201964 0.964723
0.632497 3.87025 0.540256 0.183736 -0.242134 0.952687
0.677834 2.90757 0.261079 0.177136 -0.281171 0.943168
1.60177 3.34358 0.209608 0.171737 -0.2677 0.948073
2.70575 3.63766 0.164977 0.0605318 -0.253751 0.965369
3.74672 3.86673 0.171493 0.014207 -0.226598 0.973885
4.74919 3.76048 0.171057 -0.0703627 -0.23027 0.97058
5.74968 3.51677 0.177217 -0.102912 -0.264237 0.958951
6.77372 3.03642 0.211586 -0.196102 -0.274841 0.941279
7.35367 3.26655 0.398577 -0.187539 -0.289933 0.938492
7.36106 4.2903 0.657227 -0.164364 -0.216602 0.962324
7.36182 5.29133 0.862502 -0.162158 -0.176466 0.970834
7.35154 6.40308 1.04544 -0.181507 -0.149163 0.972011
7.38695 7.59895 1.20117 -0.190744 -0.0843789 0.977987
7.3888 8.62388 1.27504 -0.180904 -0.0584043 0.981765
7.37366 9.65849 1.32845 -0.18553 -0.0456283 0.981579
7.3702 10.7428 1.37167 -0.189329 -0.0349246 0.981292
7.3743 11.7821 1.40725 -0.188251 -0.0326316 0.981579
7.36999 12.8086 1.4404 -0.191111 -0.033326 0.981003
7.37111 13.9928 1.48038 -0.198849 -0.0346637 0.979409
7.36143 15.1432 1.52608 -0.203689 -0.0426376 0.978107
7.36737 16.3421 1.57398 -0.215733 -0.0404661 0.975614
7.36756 17.4095 1.62663 -0.23918 -0.0547139 0.969432
7.39534 18.4706 1.68043 -0.25021 -0.0337566 0.9676
7.39531 19.5668 1.71448 -0.261409 -0.0273038 0.964839
7.39914 20.7353 1.73598 -0.271394 -0.00947464 0.962421
7.40176 21.745 1.74427 -0.27849 -0.0010093 0.960439
7.39934 22.8082 1.74307 -0.285494 0.00218685 0.958378
7.40219 24.0204 1.74167 -0.283027 0.00426591 0.959102
7.3915 25.0202 1.74325 -0.306787 -0.0233807 0.951491
7.40814 26.1029 1.78363 -0.32732 -0.0364155 0.944211
7.4139 27.1507 1.8943 -0.362984 -0.177772 0.914031
7.46516 28.2375 2.15517 -0.541173 -0.167986 0.823961
7.45902 29.2881 2.55752 -0.518259 -0.44212 0.730177
7.16229 30.1665 2.98799 -0.491122 -0.591171 0.639708
6.35323 30.7775 2.91287 -0.558256 -0.657537 0.504584
5.49953 31.425 2.81146 -0.539495 -0.814552 0.174434
4.49599 31.7156 2.8156 -0.0651671 -0.955356 0.288181
3.48106 31.65 2.79098 0.227861 -0.955644 0.182567
2.62958 31.0642 2.80569 0.639839 -0.744979 0.188713
1.75151 30.4156 2.90014 0.537571 -0.738863 0.40055
0.981651 29.6744 2.93633 0.636559 -0.571358 0.517998
0.554935 28.8454 2.64553 0.575523 -0.426947 0.697488
0.546644 28.585 2.53544 0.531841 -0.301783 0.790991
1.85804 29.0754 1.52217 0.617062 -0.146959 0.773071
2.91707 29.2439 1.11078 0.217748 -0.218186 0.951305
3.88994 29.3375 0.866241 0.289187 -0.183941 0.939434
4.84545 29.3338 0.873543 -0.415397 0.0886922 0.905306
5.83469 29.1578 1.42224 -0.529411 -0.226587 0.817547
6.00861 29.1189 1.52408 -0.490481 -0.24394 0.836614
5.85383 28.121 1.32149 -0.321509 0.0485233 0.945663
4.80407 28.2094 0.995458 -0.264535 0.125837 0.956131
3.80089 28.2135 0.847299 0.0690063 0.155964 0.985349
2.76241 28.1507 1.11384 0.392065 -0.0867509 0.915838
1.9858 28.0618 1.45261 0.487162 -0.0538694 0.871649
2.11468 27.0825 1.38752 0.389633 0.0469594 0.919772
3.13306 27.1358 1.08459 0.19074 0.253618 0.948312
4.12917 27.1615 1.04194 -0.0476613 0.223896 0.973447
5.21329 27.1461 1.1814 -0.21057 0.0458777 0.976502
5.84227 27.1182 1.32744 -0.25856 -0.0731447 0.963222
5.7468 26.1566 1.26148 -0.251593 -0.0405375 0.966984
4.65879 26.1822 1.09424 -0.038584 0.0186168 0.999082
3.58385 26.1721 1.14745 0.0922362 -0.00846071 0.995701
2.58677 26.1449 1.29195 0.24501 0.00724342 0.969493
2.23163 26.1298 1.39757 0.314237 0.0313256 0.948828
2.25593 25.1805 1.40987 0.281131 0.022896 0.959396
3.37298 25.204 1.15993 0.159282 0.00446344 0.987223
4.44075 25.2103 1.09205 -0.0351922 -0.0291484 0.998955
5.59389 25.2053 1.24823 -0.206698 0.0454849 0.977347
5.68032 25.2041 1.26776 -0.21945 0.0501773 0.974333
5.69069 24.2572 1.28447 -0.219567 0.0126049 0.975516
4.65815 24.2604 1.11798 -0.125675 0.0103041 0.992018
3.57204 24.2559 1.13833 0.112664 -0.00388635 0.993626
2.50691 24.2443 1.34396 0.277319 -0.0325952 0.960225
2.16329 24.2397 1.45489 0.323516 -0.011856 0.946149
2.19334 23.2992 1.45457 0.307569 0.0191118 0.951334
3.28587 23.3085 1.19338 0.138918 0.0557632 0.988733
4.44564 23.3147 1.13178 -0.05869 0.0192933 0.99809
5.53709 23.3126 1.25841 -0.158834 -0.0237056 0.987021
5.80039 23.3121 1.3063 -0.206048 -0.0311036 0.978047
5.75896 22.374 1.29815 -0.179724 0.01144 0.983651
4.65937 22.3711 1.15014 -0.0771097 -0.00978084 0.996975
3.65953 22.3697 1.14105 0.0497781 0.0267573 0.998402
2.52857 22.3633 1.35068 0.247156 -0.00615562 0.968956
2.17886 22.3602 1.45224 0.282936 -0.00873208 0.959099
2.1603 21.4226 1.45474 0.260526 -0.00629862 0.965446
3.22948 21.4311 1.20014 0.17531 -0.00291072 0.984509
4.32845 21.4364 1.13289 -0.0454187 0.00911874 0.998926
5.35113 21.4391 1.22383 -0.166846 0.00668484 0.98596
5.67777 21.4388 1.28379 -0.187785 -0.00342243 0.982204
5.74954 20.5028 1.29902 -0.190596 -0.00789701 0.981637
4.62705 20.5022 1.14095 -0.0667524 -0.00953646 0.997724
3.58216 20.4992 1.15197 0.0517145 0.00170212 0.99866
2.58879 20.4933 1.31999 0.224522 -0.00306821 0.974464
2.3565 20.491 1.3781 0.242678 0.000831097 0.970106
2.31209 19.5582 1.37513 0.282787 0.00359581 0.959176
3.38248 19.5672 1.17858 0.107117 0.00552013 0.994231
4.4755 19.5713 1.14144 -0.0472029 0.0115671 0.998818
5.6159 19.57 1.27148 -0.187668 0.02443 0.981929
5.79075 19.5698 1.30973 -0.204269 0.00753678 0.978886
5.68886 18.6401 1.28884 -0.163961 -0.00542351 0.986452
4.6318 18.6393 1.13928 -0.0737543 -0.0049377 0.997264
3.53913 18.638 1.15233 0.137042 0.00573007 0.990549
2.51156 18.6308 1.32383 0.221525 -0.00736025 0.975127
2.25801 18.6283 1.37865 0.218305 -0.0397959 0.975069
2.28959 17.7029 1.35142 0.212618 -0.039878 0.976321
3.28071 17.7103 1.18152 0.155175 -0.018949 0.987705
4.34829 17.7136 1.11454 -0.072833 -0.00527299 0.99733
5.40644 17.7144 1.22982 -0.144799 -0.0210066 0.989238
5.72705 17.7137 1.27691 -0.15766 -0.0228576 0.987229
5.73499 16.7892 1.2528 -0.129913 -0.00789581 0.991494
4.73669 16.7907 1.14608 -0.0729562 -0.00295534 0.997331
3.66723 16.7886 1.13022 0.100335 -0.0206311 0.99474
2.53912 16.7816 1.27416 0.1639 -0.0306998 0.985999
2.42725 16.7807 1.29273 0.162091 -0.0320628 0.986255
2.25345 15.8574 1.2912 0.159944 -0.00907101 0.987084
3.24794 15.8641 1.15156 0.086457 -0.0327577 0.995717
4.32892 15.8679 1.11996 -0.0534569 -0.01632 0.998437
5.33208 15.8665 1.19239 -0.0965625 -0.0162772 0.995194
5.56529 15.8662 1.21505 -0.150393 -0.0300106 0.988171
5.71434 14.9459 1.21163 -0.123214 -0.0255052 0.992052
4.55585 14.948 1.11457 -0.0590096 -0.020743 0.998042
3.52551 14.9451 1.11166 0.0609705 0.00480679 0.998128
2.48201 14.9392 1.22608 0.147505 -0.0214689 0.988828
2.34333 14.9382 1.24675 0.152562 -0.0232263 0.988021
2.34289 14.0191 1.21623 0.133388 -0.0351188 0.990441
3.45406 14.0263 1.08954 0.0739264 -0.0296446 0.996823
4.57814 14.0279 1.09017 -0.0483836 -0.0453857 0.997797
5.64581 14.0265 1.17334 -0.118724 -0.0492121 0.991707
5.71852 13.1073 1.15836 -0.127052 -0.0379756 0.991169
4.65375 13.1096 1.06389 -0.0615895 -0.0346742 0.997499
3.62979 13.1079 1.04733 0.0762319 -0.034595 0.99649
2.54165 13.1017 1.15044 0.113264 -0.0314573 0.993067
2.29234 13.0995 1.18455 0.136642 -0.0315087 0.990119
2.30602 12.1817 1.15133 0.158493 -0.0385277 0.986608
3.36803 12.1894 1.02644 0.0588355 -0.0280981 0.997872
4.36932 12.1914 1.01681 -0.0596982 -0.0229071 0.997954
5.41539 12.1902 1.10142 -0.0958211 -0.0281546 0.995
5.69967 12.1892 1.13134 -0.138234 -0.019572 0.990206
5.69978 11.2719 1.10853 -0.117993 -0.0310631 0.992529
4.69029 11.2743 1.01379 -0.0773957 -0.0253472 0.996678
3.67766 11.2738 0.985297 0.0173076 -0.0323319 0.999327
2.55272 11.2669 1.09286 0.120844 -0.0286781 0.992257
2.45869 11.2661 1.10453 0.147049 -0.0180087 0.988965
2.29976 10.3491 1.08563 0.134161 -0.0573564 0.989298
3.35073 10.3585 0.962494 0.0621022 -0.0269556 0.997706
4.36456 10.3611 0.957926 -0.0573928 -0.0447891 0.997346
5.45551 10.3574 1.04839 -0.09261 -0.0418735 0.994822
5.69132 10.3564 1.07104 -0.116577 -0.0266763 0.992823
5.65292 9.4411 1.03031 -0.115349 -0.0512425 0.992002
4.5356 9.44626 0.925299 -0.061296 -0.0538978 0.996663
3.44295 9.44527 0.911441 0.0565509 -0.0705004 0.995907
2.43945 9.43656 1.01434 0.125643 -0.0614633 0.99017
2.39191 9.43602 1.02064 0.15528 -0.0523439 0.986483
2.29302 8.52202 0.980164 0.120498 -0.0689021 0.990319
3.29125 8.53256 0.871867 0.0927055 -0.0494354 0.994466
4.31359 8.5355 0.854139 -0.0776113 -0.0595751 0.995202
5.40816 8.52942 0.95023 -0.0962364 -0.0626645 0.993384
5.72316 8.52704 0.983548 -0.116228 -0.0743782 0.990434
5.71753 7.61617 0.907497 -0.119933 -0.09715 0.988017
4.71624 7.62403 0.822401 -0.0694132 -0.0869478 0.993792
3.60599 7.62465 0.80125 0.0441514 -0.0852478 0.995381
2.52715 7.61474 0.879171 0.0941832 -0.105494 0.98995
2.27863 7.61115 0.905929 0.10494 -0.0972589 0.989711
2.26401 6.70477 0.797746 0.104939 -0.116816 0.987594
3.32202 6.71824 0.71876 0.0620432 -0.137693 0.98853
4.34802 6.72202 0.702437 -0.0429216 -0.126915 0.990985
5.46992 6.71198 0.778516 -0.0749681 -0.126467 0.989134
5.66054 6.70915 0.798535 -0.120518 -0.112386 0.986329
5.65688 5.80538 0.674587 -0.11335 -0.14204 0.98335
4.54031 5.82214 0.575641 -0.0701644 -0.159824 0.984649
3.50797 5.82305 0.562807 0.0710992 -0.169233 0.983008
2.3924 5.80472 0.657835 0.108858 -0.155592 0.981805
2.27249 5.80208 0.672458 0.122961 -0.160769 0.979303
2.92672 30.41 1.37019 0.59291 -0.336335 0.731667
3.92103 30.5531 1.12256 0.141031 -0.459206 0.877063
4.94949 30.5141 1.20553 -0.584309 -0.380365 0.716872
5.27415 30.3971 1.41211 -0.578737 -0.329417 0.746021
5.40663 30.3503 1.48655 -0.545757 -0.300066 0.782374
