1.37058 29.3659 1.7917 0.784731 -0.299201 0.521268
1.93996 30.1848 1.84242 0.604509 -0.682067 0.411526
2.68877 30.9657 1.71546 0.761113 -0.567377 0.314309
3.47455 31.6535 1.68103 0.255189 -0.906541 0.336247
4.44908 31.4732 1.75978 0.0115445 -0.899406 0.436962
5.43332 31.307 1.75256 -0.742042 -0.526068 0.415484
6.10711 30.493 1.96464 -0.767541 -0.36123 0.52163
6.47818 29.5898 1.80305 -0.571744 -0.347473 0.741559
6.50099 28.6387 1.42127 -0.506863 -0.131026 0.851289
6.3917 27.5037 1.32872 -0.378649 -0.0252666 0.923424
6.32901 26.4864 1.25229 -0.299426 -0.0589701 0.952295
6.3103 25.3312 1.23527 -0.281395 0.0115391 0.959455
6.33089 24.3093 1.25541 -0.255631 0.00628254 0.966754
6.33486 23.2109 1.26015 -0.264322 0.00145903 0.964433
6.33434 22.1839 1.2649 -0.243476 0.00833255 0.969871
6.32747 21.0353 1.26707 -0.234114 -0.00419107 0.972177
6.31388 20.0249 1.25829 -0.246918 0.00690938 0.968914
6.27474 18.9505 1.23654 -0.235175 -0.0275664 0.971542
6.22252 17.7846 1.20307 -0.216131 -0.0244216 0.975994
6.25948 16.6192 1.166 -0.210232 -0.0258601 0.977309
6.25774 15.6159 1.14658 -0.18135 -0.000849589 0.983418
6.25582 14.4821 1.10888 -0.173678 -0.0289659 0.984376
6.26639 13.3729 1.07532 -0.175095 -0.0336227 0.983976
6.28622 12.31 1.04846 -0.167852 -0.0251846 0.98549
6.26885 11.1621 1.01382 -0.160266 -0.0150398 0.986959
6.27613 10.0965 0.971625 -0.143756 -0.0301581 0.989154
6.29014 9.07332 0.930749 -0.151565 -0.0498739 0.987132
6.26663 8.01154 0.84698 -0.163886 -0.0786983 0.983288
6.27178 6.96393 0.736141 -0.177477 -0.113932 0.977508
6.26062 5.88974 0.598848 -0.160796 -0.149985 0.975479
5.66606 5.37611 0.431003 -0.112334 -0.182058 0.976832
4.64047 5.58343 0.364678 -0.0913297 -0.174807 0.980353
3.54496 5.6167 0.345877 0.0499855 -0.1729 0.982986
2.3789 5.41017 0.423315 0.102607 -0.168554 0.980337
1.70573 5.8686 0.590289 0.146857 -0.150677 0.977551
1.70332 6.90939 0.729528 0.185298 -0.123798 0.974853
1.71002 7.90373 0.83922 0.153421 -0.0936255 0.983715
1.70394 8.90643 0.92632 0.179317 -0.0706781 0.981248
1.71937 9.95119 0.995025 0.200855 -0.0541263 0.978125
1.72361 11.0627 1.05019 0.188379 -0.0477245 0.980854
1.71178 12.0922 1.08555 0.214958 -0.0365092 0.975907
1.71883 13.2287 1.11972 0.213528 -0.0455257 0.975876
1.71665 14.3925 1.16267 0.191271 -0.0363811 0.980788
1.72497 15.4634 1.20904 0.229501 -0.036693 0.972534
1.69781 16.524 1.26136 0.232183 -0.0386172 0.971905
1.65743 17.6076 1.31927 0.255146 -0.0477853 0.965717
1.67396 18.611 1.35399 0.288222 -0.04068 0.956677
1.68075 19.7571 1.39583 0.322229 -0.0266464 0.946287
1.69004 20.785 1.42049 0.324823 -0.0159048 0.945641
1.63933 21.9291 1.4508 0.339473 -0.0117118 0.940543
1.63734 22.9461 1.46575 0.341955 -0.00106968 0.939685
1.6485 23.946 1.45898 0.352801 0.00835935 0.935661
1.63343 25.0086 1.45176 0.329867 0.0198769 0.943818
1.64009 26.0203 1.42677 0.364415 0.0195337 0.931032
1.60909 27.1015 1.39748 0.373526 0.0271661 0.927222
1.4937 28.1801 1.51967 0.557959 -0.0784776 0.825415
1.37758 29.1882 1.73296 0.796138 -0.161394 0.583195
1.37456 29.2471 1.75339 0.796138 -0.161394 0.583195
0.556147 28.8466 2.4163 0.605759 -0.292545 0.739915
0.731402 29.7201 2.94841 0.584771 -0.609723 0.534148
1.46726 30.3924 2.88907 0.58306 -0.688298 0.42915
2.3661 31.0513 2.82612 0.594933 -0.742478 0.307255
3.16164 31.6834 2.80371 0.601216 -0.793656 0.0912663
4.12197 32.03 2.77079 -0.123713 -0.928938 0.348955
5.13222 31.7872 2.81499 -0.300864 -0.937648 0.174062
6.03446 31.2542 2.87405 -0.618413 -0.686824 0.381888
6.88247 30.635 2.94466 -0.512619 -0.6444 0.567285
7.42747 29.8085 2.64495 -0.507346 -0.520533 0.686764
7.43389 28.9356 2.11817 -0.500659 -0.332064 0.799421
7.43084 27.922 1.85744 -0.495303 -0.153618 0.85503
7.38834 26.8846 1.64678 -0.353573 -0.109124 0.929019
7.36841 25.7725 1.56838 -0.324374 -0.0266876 0.945552
7.38066 24.7376 1.55562 -0.299971 -0.00512087 0.953901
7.39179 23.7065 1.56127 -0.283777 0.00529333 0.958876
7.39149 22.6381 1.56507 -0.283162 0.00439131 0.959062
7.39333 21.5959 1.56767 -0.271407 -0.000243658 0.962465
7.38622 20.5942 1.55696 -0.267728 -0.0104914 0.963437
7.37745 19.5188 1.53445 -0.261375 -0.0265399 0.96487
7.38599 18.3397 1.49889 -0.2525 -0.0381653 0.966842
7.34688 17.3042 1.44106 -0.236926 -0.0500263 0.970236
7.35034 16.223 1.39047 -0.219694 -0.037349 0.974812
7.35228 15.2196 1.35396 -0.206038 -0.039578 0.977743
7.34119 14.1131 1.30779 -0.198829 -0.0354612 0.979388
7.37388 12.9919 1.27667 -0.191792 -0.0327221 0.98089
7.37111 11.9312 1.24023 -0.188799 -0.0330581 0.981459
7.36661 10.9145 1.20541 -0.189547 -0.0335016 0.9813
7.35503 9.83978 1.16278 -0.188656 -0.043287 0.981074
7.37406 8.82655 1.11293 -0.177656 -0.0615694 0.982165
7.33992 7.68835 1.02619 -0.180844 -0.0798464 0.980265
7.37279 6.64576 0.916881 -0.189016 -0.133638 0.972838
7.34979 5.55711 0.7327 -0.16679 -0.171869 0.970898
7.3432 4.44686 0.510113 -0.169642 -0.214346 0.961889
7.19362 3.41433 0.226073 -0.191939 -0.250807 0.9488
6.22164 4.06966 0.206179 -0.150902 -0.2613 0.953389
5.19284 4.34085 0.164598 -0.0829724 -0.239173 0.967227
4.15641 4.54674 0.14143 -0.0186315 -0.193095 0.981003
3.01803 4.38839 0.152128 0.0655939 -0.224047 0.972349
1.95053 4.19129 0.197765 0.148339 -0.252714 0.95607
1.00114 3.58377 0.213981 0.198576 -0.261737 0.94449
0.648584 4.13422 0.421915 0.1738 -0.226045 0.958425
0.640831 5.22871 0.654224 0.161722 -0.188036 0.968756
0.613353 6.24239 0.849397 0.177002 -0.169046 0.969574
0.637153 7.40294 1.00795 0.208751 -0.105563 0.972246
0.629493 8.39948 1.10591 0.208243 -0.088409 0.974073
0.625787 9.54089 1.20451 0.219883 -0.0761709 0.972548
0.608155 10.5664 1.28363 0.232745 -0.055738 0.970878
0.648028 11.6605 1.3209 0.235628 -0.0343842 0.971234
0.612944 12.7458 1.36654 0.245044 -0.0373836 0.968749
0.634606 13.8231 1.40735 0.266574 -0.0502268 0.962505
0.643125 14.8969 1.46623 0.277655 -0.0560203 0.959044
0.651719 15.9503 1.52468 0.282032 -0.0558944 0.957775
0.6097 17.0643 1.60325 0.288816 -0.0574318 0.95566
0.601737 18.0871 1.66656 0.299807 -0.0524375 0.952558
0.604747 19.1238 1.72403 0.318553 -0.0563118 0.946213
0.628711 20.241 1.77966 0.32631 -0.0390469 0.944456
0.607898 21.2514 1.82261 0.348618 -0.0264838 0.936876
0.603155 22.307 1.85031 0.367714 -0.0201807 0.92972
0.599399 23.5084 1.86389 0.364682 -0.000303484 0.931131
0.597573 24.5439 1.8581 0.364585 0.00956229 0.93112
0.588326 25.6841 1.84718 0.369696 0.0150461 0.929031
0.609687 26.7673 1.83602 0.410359 -0.067877 0.907866
0.571256 27.7546 2.0413 0.542652 -0.22497 0.80927
0.556939 28.7083 2.36099 0.565345 -0.335459 0.751166
1.85916 29.3526 1.30523 0.588771 -0.111304 0.8006
2.76887 29.5686 0.903153 0.293778 -0.10292 0.950317
3.86061 29.6922 0.603138 0.268414 -0.0652345 0.961092
4.87277 29.6538 0.62039 -0.35414 -0.113034 0.928336
5.71234 29.4554 1.18004 -0.57017 -0.146052 0.80844
5.92203 29.392 1.32052 -0.593269 -0.260744 0.761607
5.98176 28.3703 1.16836 -0.378945 -0.0414125 0.924492
4.98486 28.5024 0.797837 -0.277935 0.117987 0.953326
3.98152 28.53 0.609174 -0.107296 0.0580684 0.99253
2.81598 28.46 0.860065 0.307683 0.0351182 0.950841
2.0027 28.3341 1.21524 0.448443 0.0090563 0.893765
2.21821 27.3568 1.12867 0.374743 0.045109 0.926031
3.33558 27.4307 0.800786 0.0902761 0.206511 0.974271
4.3739 27.4515 0.806019 -0.129754 0.165937 0.977563
5.47528 27.4199 1.03443 -0.258862 0.0223258 0.965656
5.85044 27.4021 1.13395 -0.292742 0.0283707 0.955771
5.72014 26.4433 1.07467 -0.254424 -0.0196687 0.966893
4.72916 26.4659 0.921445 -0.0244045 0.0451621 0.998682
3.68394 26.4584 0.938192 0.0705257 0.049446 0.996284
2.58489 26.4129 1.09379 0.231232 0.0604046 0.971022
2.19942 26.3945 1.20863 0.33259 0.0840928 0.939315
2.28371 25.4587 1.21765 0.27127 0.0334212 0.961923
3.27803 25.4867 0.997271 0.147111 0.000411739 0.98912
4.28237 25.4991 0.907059 0.0377517 0.0209015 0.999069
5.49078 25.4937 1.0336 -0.178586 0.0235247 0.983643
5.74729 25.4902 1.08779 -0.206312 0.0495322 0.977232
5.7722 24.5511 1.11822 -0.216154 0.00376909 0.976352
4.72249 24.5534 0.931661 -0.0743705 0.0369367 0.996546
3.72325 24.5481 0.937287 0.124664 0.0132181 0.992111
2.64583 24.5339 1.1321 0.253259 0.00477497 0.967387
2.36513 24.5297 1.20814 0.313327 0.00368175 0.949638
2.20548 23.5998 1.26632 0.279488 0.00361987 0.960142
3.27456 23.611 1.00592 0.156939 0.0218992 0.987365
4.28888 23.6194 0.930625 -0.0414272 0.0739387 0.996402
5.34967 23.6214 1.04394 -0.176924 0.0323347 0.983693
5.74288 23.6214 1.11774 -0.203974 0.0217612 0.978734
5.72803 22.6922 1.11126 -0.194979 -0.00719239 0.980781
4.67325 22.6919 0.979261 -0.097491 -0.00318228 0.995231
3.53987 22.6851 0.975375 0.147567 0.0320442 0.988533
2.35758 22.6753 1.22468 0.264039 -0.0220502 0.96426
2.26175 22.6746 1.25376 0.302075 -0.0179786 0.953115
2.2257 21.7492 1.25884 0.278132 -0.026863 0.960167
3.34978 21.7583 1.00659 0.152706 0.0392605 0.987491
4.45406 21.7652 0.965335 -0.0175774 -0.00323984 0.99984
5.45958 21.7661 1.05368 -0.171497 -0.0173415 0.985032
5.68741 21.7662 1.10516 -0.224448 0.00397997 0.974478
5.66913 20.8411 1.10742 -0.225275 -0.00735701 0.974267
4.65593 20.839 0.972327 -0.0724315 -0.0247659 0.997066
3.62334 20.8337 0.980324 0.0431383 0.00198132 0.999067
2.55111 20.8276 1.15804 0.237561 -0.0102799 0.971318
2.28565 20.8248 1.2323 0.269503 -0.0167986 0.962853
2.21897 19.9023 1.23341 0.28068 -0.026323 0.95944
3.29718 19.9116 1.01749 0.132004 0.0110535 0.991188
4.47924 19.9163 0.969464 -0.051212 0.0159388 0.998561
5.55357 19.9183 1.09083 -0.17208 0.02096 0.98486
5.7214 19.9183 1.12015 -0.16989 0.0190362 0.985279
5.63604 18.9973 1.11003 -0.167838 -0.0193023 0.985626
4.60766 18.9958 0.96947 -0.0888117 0.00664821 0.996026
3.51864 18.9936 0.993313 0.0897677 0.000905178 0.995962
2.45322 18.9868 1.15896 0.202926 -0.0156308 0.979069
2.21104 18.9841 1.20889 0.202075 -0.0161456 0.979237
2.39988 18.0689 1.15936 0.191666 -0.0121244 0.981385
3.41723 18.0773 1.00635 0.134803 -0.0212134 0.990645
4.60446 18.0802 0.965526 -0.0519583 -0.0245093 0.998348
5.58976 18.0808 1.08636 -0.151694 -0.0136021 0.988334
5.67881 17.1644 1.08282 -0.135005 -0.0145142 0.990739
4.57874 17.1663 0.959424 -0.0749003 -0.0115484 0.997124
3.46084 17.1623 0.980368 0.109579 -0.00988453 0.993929
2.45134 17.1558 1.12552 0.167991 -0.036364 0.985118
2.35614 17.155 1.14253 0.186618 -0.0357546 0.981782
2.35447 16.2439 1.10755 0.179398 -0.0508068 0.982464
3.37867 16.2515 0.977767 0.0686995 -0.0151628 0.997522
4.52739 16.2538 0.959827 -0.035341 0.0137212 0.999281
5.57669 16.2524 1.05212 -0.137119 -0.0131358 0.990468
5.68927 15.3423 1.04668 -0.130331 -0.0179291 0.991308
4.68957 15.3428 0.960183 -0.0639808 -0.0212211 0.997725
3.61022 15.3407 0.950705 0.0414646 0.00973659 0.999093
2.43513 15.3345 1.06481 0.134954 -0.0231594 0.990581
2.42628 15.3344 1.06602 0.144387 -0.0296048 0.989078
2.28494 14.4242 1.05801 0.13086 -0.0133352 0.991311
3.30711 14.4305 0.946258 0.0802997 -0.0250448 0.996456
4.30648 14.4339 0.917748 -0.0302253 -0.0414018 0.998685
5.34051 14.4327 0.986953 -0.0832191 -0.0329187 0.995987
5.53879 14.4322 1.00456 -0.101282 -0.0424118 0.993953
5.58539 13.5243 0.980827 -0.108554 -0.0379483 0.993366
4.4817 13.5252 0.889651 -0.0730537 -0.0285678 0.996919
3.37542 13.5226 0.905903 0.0921591 -0.0407758 0.994909
2.29069 13.5159 1.03019 0.147037 -0.0301919 0.98867
2.44884 12.6105 0.965626 0.143982 -0.0428902 0.98865
3.53127 12.6174 0.864131 0.0642632 -0.0382976 0.997198
4.58702 12.619 0.872121 -0.0547536 -0.032651 0.997966
5.66926 12.6167 0.969166 -0.123055 -0.03918 0.991626
5.71765 12.6165 0.97505 -0.120759 -0.0420565 0.991791
5.5676 11.7106 0.932958 -0.110155 -0.0203511 0.993706
4.46599 11.7126 0.83871 -0.0734096 -0.0218101 0.997063
3.36826 11.7102 0.839375 0.0611876 -0.0385684 0.997381
2.46287 11.7038 0.942257 0.144554 -0.0301446 0.989038
2.31355 10.7969 0.937656 0.145546 -0.0419891 0.98846
3.42412 10.806 0.805536 0.0902193 -0.0673711 0.993641
4.45106 10.8072 0.816493 -0.0667501 -0.0266471 0.997414
5.54333 10.8048 0.900897 -0.0935082 -0.0384497 0.994876
5.67115 10.8043 0.914131 -0.108522 -0.0452509 0.993064
5.72934 9.89902 0.888259 -0.120207 -0.0520458 0.991384
4.72997 9.90358 0.794534 -0.0813402 -0.0477375 0.995543
3.72129 9.90446 0.75216 0.0213161 -0.0737838 0.997046
2.64303 9.89649 0.846426 0.133832 -0.0677701 0.988684
2.29323 9.89289 0.893529 0.138128 -0.0611583 0.988524
2.27983 8.99006 0.837498 0.124931 -0.0676033 0.98986
3.31422 9.00006 0.724248 0.0905024 -0.0573254 0.994245
4.31994 9.00279 0.716643 -0.0670099 -0.0765373 0.994812
5.40885 8.99776 0.807786 -0.103746 -0.0464153 0.99352
5.74246 8.99529 0.846296 -0.115648 -0.0449116 0.992274
5.54738 8.09567 0.76069 -0.0986579 -0.0790169 0.991979
4.50439 8.10234 0.670008 -0.0756232 -0.0682206 0.9948
3.44836 8.10071 0.665431 0.0506393 -0.0404392 0.997898
2.3306 8.08956 0.766644 0.103082 -0.0880445 0.990768
2.32406 7.19209 0.675435 0.10674 -0.107072 0.988505
3.41942 7.20327 0.599123 0.0633584 -0.102018 0.992763
4.48211 7.20518 0.598381 -0.0543484 -0.0954249 0.993952
5.61002 7.19711 0.6733 -0.0862043 -0.117429 0.989333
5.65859 6.301 0.568121 -0.102864 -0.124918 0.98682
4.61236 6.31356 0.488072 -0.0764295 -0.17644 0.98134
3.53607 6.31524 0.46992 0.0569723 -0.174753 0.982963
2.46973 6.30039 0.54986 0.0924531 -0.142194 0.985512
2.24662 6.29638 0.570824 0.12316 -0.13755 0.982808
2.82927 30.7565 1.12627 0.875111 -0.349167 0.335057
3.72166 30.9558 0.834601 -0.00843896 -0.311453 0.950224
4.72057 30.8103 1.0393 -0.0536922 -0.637346 0.768705
5.56054 30.6267 1.33598 -0.655797 -0.394638 0.643577
5.61439 30.5997 1.3743 -0.651619 -0.298415 0.697382
