1.32786 29.4156 1.71831 0.798133 -0.293699 0.512594
1.95576 30.3172 1.82827 0.632035 -0.669653 0.388723
2.65485 31.0709 1.73885 0.78572 -0.575374 0.227129
3.4229 31.7419 1.66143 0.263599 -0.945043 0.193414
4.40283 31.6265 1.77322 -0.11939 -0.847162 0.497795
5.43053 31.3736 1.753 -0.534538 -0.789089 0.302667
6.18123 30.5294 1.92207 -0.730426 -0.458362 0.505701
6.47881 29.6513 1.71956 -0.6088 -0.335169 0.717836
6.45194 28.6068 1.30445 -0.489203 -0.114515 0.864619
6.39252 27.5063 1.23267 -0.322834 -0.0168544 0.946294
6.34637 26.4271 1.16818 -0.315723 -0.0507094 0.947478
6.29258 25.4064 1.1436 -0.271391 -0.00258704 0.962466
6.29922 24.3665 1.15467 -0.261363 0.00816739 0.965204
6.31684 23.1576 1.16874 -0.267343 0.00999688 0.963549
6.32038 22.0882 1.17574 -0.263859 0.0118058 0.964489
6.29372 21.0864 1.17306 -0.264076 -0.00234989 0.96449
6.27954 20.039 1.16212 -0.24593 0.000153827 0.969275
6.28712 18.9301 1.14819 -0.225113 -0.0266046 0.973969
6.27857 17.8159 1.11669 -0.189507 -0.0269426 0.98151
6.26401 16.7954 1.08779 -0.192191 -0.030879 0.980834
6.25118 15.7043 1.05853 -0.185689 0.000887869 0.98225
6.24568 14.5826 1.02707 -0.176321 -0.0130787 0.984164
6.24815 13.5397 0.994505 -0.171829 -0.0303734 0.984656
6.25819 12.4609 0.96538 -0.181445 -0.0265345 0.983043
6.25856 11.4361 0.934085 -0.149415 -0.030154 0.988315
6.25228 10.3439 0.887801 -0.150378 -0.0314021 0.988094
6.25774 9.2323 0.846119 -0.153052 -0.0372262 0.987513
6.2934 8.16786 0.780863 -0.16689 -0.0944916 0.981437
6.2846 7.12038 0.674615 -0.185569 -0.129697 0.974034
6.26496 5.98707 0.527167 -0.144909 -0.137767 0.979779
5.41389 5.77212 0.381921 -0.113296 -0.15817 0.98089
4.38702 5.97892 0.332922 -0.0374723 -0.160888 0.986094
3.3692 5.93257 0.332641 0.0644939 -0.161722 0.984727
2.37299 5.73167 0.386354 0.0958761 -0.157975 0.982777
1.70759 6.09468 0.532533 0.151502 -0.146979 0.977468
1.71641 7.28413 0.685462 0.148738 -0.119595 0.981604
1.7106 8.49517 0.808807 0.179091 -0.0886901 0.979827
1.76368 9.51382 0.872842 0.19155 -0.0614131 0.97956
1.73697 10.6472 0.940347 0.190293 -0.0437068 0.980612
1.69585 11.6512 0.989332 0.219462 -0.0325696 0.975077
1.7433 12.7925 1.01713 0.183466 -0.0279018 0.982455
1.74714 13.9084 1.04689 0.168901 -0.0405262 0.984681
1.74546 15.0363 1.10196 0.206372 -0.0388776 0.977656
1.69211 16.059 1.15814 0.236437 -0.0459947 0.970558
1.66502 17.0634 1.20714 0.240927 -0.0482095 0.969345
1.66551 18.131 1.2488 0.252947 -0.0263072 0.967116
1.70756 19.234 1.28254 0.283867 -0.0425934 0.957917
1.67042 20.2753 1.32575 0.326103 -0.0164418 0.945116
1.65836 21.4207 1.35228 0.340245 -0.016068 0.940195
1.68984 22.5506 1.35027 0.336387 0.00885109 0.941682
1.65751 23.6569 1.36476 0.339762 0.00527319 0.940286
1.61681 24.7425 1.36956 0.361894 0.0126124 0.932131
1.63321 25.8378 1.34547 0.347791 0.0181726 0.937396
1.61848 26.8718 1.30572 0.399526 0.0273969 0.916312
1.52352 27.9142 1.37025 0.47331 -0.0592734 0.878308
1.37951 28.9182 1.56073 0.660366 -0.0464262 0.749508
1.33116 29.3223 1.6826 0.808228 -0.185418 0.558916
0.537238 28.8921 2.33585 0.605876 -0.320348 0.728211
0.640365 29.7073 2.90016 0.580472 -0.579874 0.571663
1.48001 30.5063 2.87444 0.596437 -0.708936 0.365788
2.32918 31.1155 2.83842 0.582436 -0.78141 0.223007
3.2064 31.7925 2.81815 0.473314 -0.868894 0.144311
4.28571 32.1292 2.75971 0.103696 -0.920505 0.373917
5.28695 31.8328 2.82087 -0.393226 -0.899104 0.183054
6.25624 31.1846 2.86666 -0.586144 -0.697723 0.411833
7.07588 30.5851 2.92341 -0.541717 -0.604425 0.579306
7.43365 29.6846 2.44828 -0.525522 -0.469915 0.709229
7.41464 28.7695 1.93935 -0.5152 -0.302626 0.801864
7.41918 27.657 1.70873 -0.463562 -0.146124 0.872766
7.39748 26.6498 1.53455 -0.346434 -0.0515035 0.936371
7.38121 25.6337 1.47741 -0.307316 -0.0129379 0.951501
7.3687 24.592 1.4604 -0.296138 0.00336159 0.955139
7.38995 23.4876 1.47353 -0.284138 0.00267923 0.95878
7.38827 22.4781 1.47846 -0.280054 0.00674157 0.95996
7.37427 21.4737 1.47517 -0.270947 -0.00565854 0.962576
7.36233 20.2799 1.45887 -0.267933 -0.0148134 0.963324
7.38571 19.149 1.43946 -0.259162 -0.0309455 0.965338
7.37358 18.1252 1.40024 -0.246603 -0.0343033 0.968509
7.36959 17.0236 1.34582 -0.232704 -0.055768 0.970947
7.35879 16.0186 1.29835 -0.212328 -0.0352119 0.976564
7.37406 14.9646 1.26334 -0.204892 -0.0365991 0.9781
7.33754 13.7683 1.20977 -0.196294 -0.0332153 0.979982
7.36608 12.7227 1.18066 -0.190783 -0.032923 0.98108
7.36182 11.6799 1.14477 -0.188846 -0.0329755 0.981453
7.35477 10.5523 1.10459 -0.190048 -0.0372587 0.981067
7.36949 9.43813 1.05996 -0.181555 -0.050386 0.982081
7.35873 8.25563 0.987212 -0.181742 -0.0670777 0.981043
7.37066 7.19121 0.90371 -0.207745 -0.0972121 0.973173
7.34924 6.06076 0.734771 -0.178772 -0.157108 0.971266
7.3422 4.99854 0.536633 -0.162148 -0.195062 0.967286
7.339 4.0023 0.315779 -0.176936 -0.230695 0.956725
6.68586 4.13661 0.221713 -0.18669 -0.237998 0.953155
5.78202 4.54982 0.180134 -0.093511 -0.242778 0.965564
4.74354 4.79539 0.140935 -0.0826897 -0.19171 0.977878
3.56044 4.89082 0.128624 0.0290545 -0.180754 0.983099
2.5428 4.64819 0.162556 0.0697343 -0.244965 0.967021
1.4746 4.30123 0.209196 0.171458 -0.242079 0.954789
0.683741 3.73667 0.22407 0.200837 -0.233849 0.951304
0.622814 4.75447 0.469442 0.165804 -0.20939 0.963673
0.636835 5.86113 0.687224 0.169438 -0.168346 0.971056
0.62918 6.99059 0.868812 0.197595 -0.125795 0.972179
0.629908 8.01468 0.983785 0.206306 -0.0898577 0.974353
0.644127 9.12254 1.07952 0.207929 -0.078226 0.974999
0.651266 10.1654 1.16082 0.22609 -0.064248 0.971985
0.612426 11.1639 1.22261 0.23441 -0.0410833 0.971269
0.621389 12.2515 1.26321 0.237241 -0.0354276 0.970805
0.635427 13.2546 1.29484 0.263912 -0.0369777 0.963838
0.644773 14.285 1.34409 0.274652 -0.0518588 0.960144
0.639012 15.3939 1.41022 0.278582 -0.0481373 0.959205
0.611027 16.5006 1.48303 0.284479 -0.058274 0.95691
0.607135 17.5548 1.54831 0.2926 -0.0566818 0.954553
0.609253 18.5976 1.60465 0.309651 -0.0519944 0.949421
0.621549 19.6543 1.66297 0.321949 -0.0572482 0.945024
0.602225 20.7446 1.72296 0.343237 -0.0358752 0.938555
0.580243 21.844 1.761 0.354379 -0.0248986 0.934756
0.619115 22.8626 1.76164 0.368084 -0.00685504 0.929756
0.591954 23.9875 1.7739 0.36276 0.00525994 0.931868
0.583917 25.0088 1.76687 0.364511 0.0117588 0.931125
0.589384 26.1261 1.74997 0.36653 0.00872749 0.930362
0.580697 27.2036 1.81683 0.480784 -0.159581 0.862195
0.531031 28.2718 2.10407 0.557245 -0.247483 0.792175
0.538189 28.7732 2.28276 0.565449 -0.357687 0.741036
1.75777 29.4559 1.25061 0.634787 -0.186144 0.74993
2.63104 29.6936 0.803672 0.302111 -0.0432426 0.952291
3.61722 29.8399 0.508052 0.265107 -0.019656 0.964019
4.60626 29.8587 0.412425 -0.309042 0.223023 0.924529
5.52008 29.6752 0.90237 -0.625879 -0.102128 0.773205
5.93314 29.5379 1.23098 -0.648486 -0.210578 0.731521
5.79711 28.5539 0.978441 -0.470909 -0.00676554 0.882156
4.70209 28.6609 0.580545 -0.271187 0.144896 0.951558
3.6575 28.6594 0.4734 0.144497 0.00218394 0.989503
2.7069 28.5864 0.773739 0.356969 0.104552 0.928247
2.0043 28.4451 1.11797 0.480343 0.0127975 0.876987
2.09685 27.4737 1.08487 0.369593 0.0387808 0.928384
3.11284 27.5565 0.708268 0.274015 0.0578961 0.959981
4.16954 27.5913 0.649 -0.0431791 0.243323 0.968984
5.30702 27.5759 0.877957 -0.250887 0.0846214 0.964311
5.74815 27.549 1.00286 -0.272486 0.0823354 0.95863
5.75948 26.5856 1.00718 -0.213951 -0.000593518 0.976844
4.77151 26.6088 0.831008 -0.0532147 0.00133713 0.998582
3.74607 26.5996 0.846048 0.0550677 0.0677293 0.996183
2.60651 26.5588 0.986675 0.199214 0.0619269 0.977997
2.30565 26.5406 1.08238 0.306246 0.0402961 0.951099
2.25645 25.6066 1.12911 0.322001 0.0169808 0.946587
3.27714 25.6385 0.899961 0.189962 -0.0187679 0.981612
4.32173 25.6485 0.819297 0.00473697 0.00224546 0.999986
5.35502 25.6421 0.915874 -0.183382 0.0330674 0.982485
5.66879 25.6379 0.985737 -0.215967 0.00983362 0.976351
5.69933 24.7033 1.0136 -0.206389 0.0175693 0.978312
4.58465 24.7068 0.821671 -0.127144 0.0478795 0.990728
3.52431 24.6989 0.876626 0.121387 0.00527472 0.992591
2.54331 24.6849 1.06438 0.282032 0.0316903 0.958882
2.22985 24.679 1.15755 0.304942 0.0259655 0.952017
2.32679 23.7576 1.13624 0.285104 0.0333101 0.957918
3.3488 23.7696 0.89856 0.150338 0.0285512 0.988222
4.48332 23.7762 0.843295 -0.0824814 0.038594 0.995845
5.64111 23.7773 0.998657 -0.191166 0.0235634 0.981275
5.73124 23.7772 1.01807 -0.223405 0.0170704 0.974576
5.73671 22.8553 1.03254 -0.191002 0.0297299 0.981139
4.73855 22.8528 0.893955 -0.0833928 -0.00183595 0.996515
3.67708 22.8492 0.867175 0.0648209 -0.00896985 0.997857
2.63118 22.8412 1.06777 0.254057 0.0140878 0.967087
2.23174 22.8373 1.17621 0.288985 -0.00712481 0.957307
2.26433 21.9177 1.15763 0.297139 -0.0227427 0.954563
3.30239 21.9254 0.928053 0.136968 1.02019e-05 0.990575
4.34184 21.93 0.865223 -0.0372998 0.00593797 0.999286
5.47059 21.9325 0.978497 -0.17014 -0.0128578 0.985336
5.73646 21.9327 1.03385 -0.222299 0.00913286 0.974936
5.73885 21.0134 1.03399 -0.226179 0.0160236 0.973954
4.68004 21.0115 0.881856 -0.0798522 -0.0168166 0.996665
3.66463 21.0084 0.886439 0.0892274 -0.0160847 0.995881
2.54269 21.0013 1.07053 0.224719 -0.0191354 0.974236
2.31619 20.9987 1.13395 0.282108 -0.034156 0.958774
2.25606 20.081 1.13846 0.256713 -0.0223208 0.96623
3.41983 20.0901 0.912052 0.108596 0.0107433 0.994028
4.57483 20.0957 0.87019 -0.0310914 -0.00339442 0.999511
5.6458 20.097 1.01707 -0.185199 0.00582832 0.982684
5.66522 19.181 1.02491 -0.180987 0.00141058 0.983485
4.54049 19.1801 0.881538 -0.0891664 -0.0101953 0.995965
3.51166 19.1777 0.905777 0.10627 -0.00671135 0.994315
2.43117 19.1692 1.08678 0.209991 0.00180892 0.977702
2.29744 19.1678 1.11551 0.209991 0.00180888 0.977702
2.24745 18.2563 1.10089 0.233165 -0.0407505 0.971583
3.40618 18.264 0.91745 0.108006 0.000282553 0.99415
4.45915 18.2682 0.866892 -0.0700262 0.00115432 0.997544
5.47914 18.2692 0.987973 -0.128274 -0.0152725 0.991621
5.7117 18.2688 1.02014 -0.163932 -0.0151992 0.986355
5.70806 17.3581 0.999926 -0.137183 -0.0255841 0.990215
4.63002 17.3587 0.879475 -0.0732169 -0.00978093 0.997268
3.59165 17.3559 0.880809 0.0933831 -0.00726651 0.995604
2.56808 17.3497 1.02651 0.162119 -0.0240944 0.986477
2.23383 17.3468 1.08623 0.194721 -0.0293469 0.980419
2.25226 16.4403 1.04864 0.173707 -0.043781 0.983824
3.34115 16.4482 0.896736 0.0983466 -0.00511074 0.995139
4.36011 16.451 0.868417 -0.00592797 0.00112966 0.999982
5.56398 16.45 0.966601 -0.128665 -0.00574067 0.991671
5.6088 15.5437 0.957361 -0.112987 -0.0233049 0.993323
4.57269 15.5448 0.872561 -0.0634108 -0.0228968 0.997725
3.47275 15.5429 0.866054 0.0933813 -0.0229756 0.995365
2.44342 15.5367 0.988222 0.152956 -0.0314947 0.987731
2.32598 15.5357 1.00638 0.152956 -0.0314947 0.987731
2.33657 14.6318 0.971671 0.150083 -0.0374309 0.987965
3.50287 14.6399 0.844094 0.0781075 -0.0186743 0.99677
4.60656 14.6408 0.850839 -0.0607659 -0.028375 0.997749
5.62245 14.6395 0.935136 -0.100438 -0.0276707 0.994559
5.56399 13.7358 0.90529 -0.104823 -0.0287884 0.994074
4.50682 13.7378 0.81668 -0.0589687 -0.0311996 0.997772
3.41474 13.7358 0.830296 0.0611587 -0.0353925 0.9975
2.39676 13.7288 0.934607 0.132717 -0.0365466 0.99048
2.42925 12.8264 0.899188 0.145966 -0.0301189 0.988831
3.44689 12.833 0.787908 0.0687849 -0.0326002 0.997099
4.55865 12.8349 0.789806 -0.0606246 -0.0327748 0.997622
5.55484 12.8332 0.876089 -0.120777 -0.0235575 0.9924
5.57554 12.8332 0.878606 -0.11929 -0.021277 0.992631
5.66246 11.9316 0.865715 -0.109086 -0.0178379 0.993872
4.56786 11.9341 0.767051 -0.0741418 -0.0286789 0.996835
3.54065 11.932 0.750721 0.0647999 -0.0290477 0.997475
2.50383 11.9254 0.855934 0.133552 -0.0417921 0.99016
2.28456 11.9236 0.887457 0.142521 -0.0387256 0.989034
2.35301 11.0232 0.852543 0.147754 -0.0307898 0.988545
3.49226 11.0323 0.723438 0.0609822 -0.0483482 0.996967
4.51529 11.0332 0.740975 -0.0457934 -0.0304063 0.998488
5.53001 11.0308 0.82397 -0.104808 -0.0418344 0.993612
5.61571 10.1309 0.797653 -0.120405 -0.0412533 0.991867
4.4861 10.135 0.706345 -0.0538443 -0.0507274 0.99726
3.42378 10.1328 0.702866 0.0686213 -0.0660708 0.995453
2.42628 10.1246 0.800345 0.125194 -0.0535027 0.990689
2.33677 10.1237 0.811605 0.132618 -0.0600412 0.989347
2.39986 9.22649 0.753887 0.1307 -0.0613751 0.98952
3.58254 9.23697 0.637291 0.0460752 -0.0367646 0.998261
4.59083 9.2374 0.66395 -0.0580438 -0.0664 0.996103
5.63402 9.23211 0.758885 -0.11135 -0.0412684 0.992924
5.65505 8.33503 0.70601 -0.105702 -0.0852386 0.990738
4.54609 8.34241 0.602856 -0.0773833 -0.066573 0.994776
3.48646 8.34134 0.586618 0.0721423 -0.0526458 0.996004
2.31664 8.32962 0.70273 0.120619 -0.0836246 0.98917
2.39758 7.43738 0.611446 0.106164 -0.125161 0.98644
3.40424 7.44769 0.535991 0.0600481 -0.0946862 0.993694
4.57109 7.44882 0.540924 -0.058448 -0.0924781 0.993998
5.59536 7.44187 0.612209 -0.079093 -0.10361 0.991468
5.63847 7.44147 0.616105 -0.12747 -0.0949702 0.987285
5.58868 6.55038 0.512741 -0.10234 -0.108846 0.988777
4.51786 6.56178 0.432002 -0.0455462 -0.128027 0.990724
3.4222 6.5607 0.430078 0.0561248 -0.148941 0.987252
2.30833 6.54616 0.514107 0.107153 -0.14993 0.982873
2.67301 30.7899 1.22766 0.748036 -0.412805 0.519648
3.40931 31.2062 0.733841 0.24251 -0.413008 0.877846
4.41674 30.9867 0.901418 -0.249601 -0.792258 0.5568
5.35978 30.8582 1.13992 -0.551211 -0.475534 0.68559
5.54032 30.7928 1.2407 -0.613954 -0.439557 0.65563
5.57566 30.7756 1.26765 -0.670524 -0.399154 0.625358
