1.32861 29.4738 1.59256 0.775724 -0.306815 0.533209
1.90129 30.3604 1.79456 0.604737 -0.706744 0.365032
2.6278 31.104 1.70568 0.784621 -0.571994 0.235224
3.45036 31.8673 1.63809 0.571906 -0.806579 0.149515
4.38254 31.7627 1.70318 -0.321076 -0.81776 0.476858
5.41471 31.5199 1.67687 -0.565843 -0.744486 0.309087
6.14551 30.7391 1.84355 -0.747938 -0.430393 0.505322
6.48463 29.8621 1.69215 -0.626198 -0.35689 0.693172
6.46935 28.8162 1.22258 -0.546653 -0.246306 0.800315
6.42029 27.8241 1.11669 -0.391393 0.0702868 0.91543
6.32877 26.8214 1.08991 -0.321351 -0.0401569 0.946108
6.29171 25.6845 1.04668 -0.289297 0.0143469 0.957132
6.27108 24.486 1.06038 -0.245373 0.00670391 0.969311
6.28798 23.4741 1.07373 -0.258158 -0.000291908 0.966103
6.30696 22.3896 1.08244 -0.264437 0.00553777 0.964387
6.30295 21.1725 1.09133 -0.259237 0.000196404 0.965756
6.28053 20.0324 1.07165 -0.260218 -0.0119503 0.965475
6.29599 19.0208 1.0661 -0.231002 -0.0119028 0.97288
6.27349 18.0029 1.04059 -0.209543 -0.0280249 0.977398
6.24187 16.8727 1.00044 -0.208997 -0.0316944 0.977375
6.23243 15.8423 0.971265 -0.191705 -0.00889503 0.981412
6.23762 14.8087 0.94466 -0.179604 -0.0331663 0.98318
6.21035 13.6093 0.904608 -0.175924 -0.028534 0.983972
6.23292 12.6052 0.876824 -0.145581 -0.0351395 0.988716
6.24427 11.5178 0.847148 -0.152473 -0.0312785 0.987808
6.18916 10.4536 0.80109 -0.13338 -0.0320431 0.99054
6.24067 9.34412 0.76123 -0.165453 -0.0494144 0.984979
6.26556 8.29264 0.698274 -0.152174 -0.096854 0.983597
6.24777 7.20952 0.58756 -0.181931 -0.121065 0.975817
6.23867 6.10799 0.4498 -0.148598 -0.134457 0.979714
5.27523 6.23676 0.353454 -0.0832709 -0.147208 0.985594
4.25588 6.51189 0.317654 -0.0258094 -0.158337 0.986983
3.16321 6.42549 0.336477 0.0757467 -0.153515 0.985239
2.21048 6.10034 0.377684 0.106961 -0.143095 0.983912
1.76414 6.65296 0.506132 0.146089 -0.127144 0.980571
1.72907 7.72532 0.63945 0.155544 -0.120042 0.980508
1.73938 8.94105 0.752869 0.188642 -0.0698286 0.97956
1.73623 10.1239 0.82567 0.203229 -0.0548977 0.977552
1.73046 11.1511 0.87429 0.195858 -0.0372007 0.97977
1.75353 12.3423 0.913363 0.214186 -0.0267679 0.976426
1.73136 13.3478 0.949422 0.187398 -0.0259661 0.981701
1.73768 14.3675 0.977693 0.20805 -0.0491271 0.976642
1.74887 15.3669 1.02408 0.224132 -0.0473085 0.973339
1.70748 16.4087 1.07659 0.262065 -0.0290886 0.964598
1.71807 17.5255 1.1239 0.267551 -0.056117 0.961872
1.69866 18.6975 1.16983 0.266788 -0.0387953 0.962858
1.71367 19.7371 1.21243 0.307264 -0.0379171 0.950827
1.68188 20.7852 1.24312 0.339891 -0.0169481 0.94031
1.68817 21.8343 1.25826 0.335794 -0.00890308 0.941887
1.67623 22.9919 1.26602 0.346651 -0.0122097 0.937915
1.6751 23.9944 1.26941 0.345027 0.00401421 0.938584
1.64335 25.0112 1.26562 0.338086 0.0184364 0.940935
1.6738 26.0433 1.23194 0.356683 0.0167926 0.934039
1.61629 27.0709 1.19223 0.40834 0.0418911 0.910762
1.50272 28.142 1.28243 0.485019 -0.0786961 0.870956
1.36442 29.1227 1.45597 0.709596 -0.0574264 0.694687
1.34401 29.3022 1.52022 0.782204 -0.181096 0.596122
0.551159 28.9672 2.21496 0.601188 -0.346338 0.720155
0.549023 27.9813 1.9026 0.53611 -0.21984 0.81496
0.620768 26.9873 1.657 0.447811 -0.152704 0.880992
0.591853 25.9165 1.66091 0.366066 0.0129972 0.930498
0.580196 24.8297 1.67974 0.363282 0.0119188 0.931603
0.613015 23.6794 1.67538 0.362564 0.00148722 0.931958
0.621388 22.5242 1.66648 0.369589 -0.00577998 0.929177
0.61958 21.5034 1.65023 0.354806 -0.020849 0.934685
0.636736 20.4078 1.60963 0.337993 -0.0413561 0.940216
0.632595 19.3028 1.54938 0.317527 -0.0583823 0.946448
0.613821 18.2876 1.49793 0.30462 -0.0496228 0.95118
0.620084 17.2765 1.44059 0.28972 -0.056634 0.955434
0.614392 16.1694 1.3759 0.280406 -0.0573387 0.958167
0.658741 15.0928 1.29912 0.27583 -0.0598581 0.959337
0.644355 14.0482 1.24522 0.267201 -0.0507409 0.962304
0.627035 12.9726 1.19998 0.249694 -0.0353832 0.967676
0.628338 11.9625 1.16377 0.237123 -0.0347211 0.970857
0.630601 10.9387 1.1223 0.236635 -0.047685 0.970425
0.62891 9.91265 1.06134 0.218281 -0.0675601 0.973545
0.643618 8.75673 0.961823 0.206764 -0.0859385 0.974609
0.644596 7.65303 0.859168 0.209535 -0.105556 0.972027
0.65416 6.50649 0.706286 0.19229 -0.156492 0.968778
0.653106 5.33709 0.499075 0.156815 -0.190593 0.969063
0.662712 4.16512 0.247013 0.177079 -0.225973 0.957812
1.57555 4.70142 0.202536 0.157386 -0.240522 0.957799
2.67478 5.04995 0.146546 0.0985292 -0.196914 0.975457
3.72261 5.46577 0.137492 0.0459196 -0.179416 0.982701
4.81326 5.22655 0.141259 -0.0957131 -0.182831 0.978474
5.87509 4.88155 0.1763 -0.129148 -0.229102 0.964797
6.79393 4.39886 0.219253 -0.192143 -0.238289 0.951978
7.35336 4.47422 0.338451 -0.172081 -0.209188 0.962616
7.34938 5.57155 0.55961 -0.158267 -0.184111 0.97008
7.35351 6.58617 0.729869 -0.197656 -0.148387 0.968954
7.35242 7.67169 0.855094 -0.1895 -0.0858751 0.978059
7.36202 8.69444 0.929233 -0.179476 -0.0624324 0.981779
7.33722 9.69903 0.979442 -0.184537 -0.0457552 0.98176
7.33529 10.7148 1.02119 -0.189674 -0.0352949 0.981212
7.36487 11.7717 1.06275 -0.189165 -0.0330011 0.981391
7.36433 12.8631 1.09963 -0.191221 -0.0333562 0.98098
7.31014 13.8752 1.1233 -0.193649 -0.0331999 0.980509
7.36349 14.9455 1.17476 -0.202974 -0.0388078 0.978409
7.34348 16.0122 1.20957 -0.213526 -0.0400125 0.976118
7.36138 17.1569 1.26665 -0.232935 -0.0539325 0.970996
7.37024 18.3306 1.32102 -0.253626 -0.033459 0.966723
7.37111 19.4919 1.358 -0.264024 -0.0238143 0.964222
7.39988 20.5412 1.38654 -0.268138 -0.011062 0.963317
7.39311 21.5738 1.39547 -0.268386 -0.00816392 0.963277
7.38759 22.5801 1.39038 -0.278027 0.00558175 0.960557
7.37824 23.6837 1.38141 -0.284568 0.00294921 0.958651
7.36475 24.7401 1.36856 -0.294993 0.00353298 0.955481
7.38641 25.874 1.39103 -0.315494 -0.0363551 0.948114
7.39739 26.9829 1.48654 -0.360896 -0.146229 0.921071
7.41404 28.013 1.64941 -0.515106 -0.142853 0.845138
7.43455 28.9841 1.91281 -0.525783 -0.340977 0.777236
7.4267 29.9113 2.46915 -0.519901 -0.485934 0.702047
7.10213 30.694 2.93149 -0.478991 -0.658262 0.578139
6.26378 31.2872 2.85769 -0.634196 -0.673535 0.379595
5.4073 31.8772 2.79508 -0.415971 -0.886674 0.190404
4.39015 32.2166 2.73968 -0.261881 -0.959333 0.103982
3.40196 32.0034 2.79242 0.570411 -0.818332 0.0676227
2.50643 31.3241 2.80521 0.622226 -0.745429 0.239103
1.62983 30.7016 2.85997 0.521343 -0.778881 0.348442
0.722854 29.9288 2.89989 0.585217 -0.635928 0.501392
0.541074 29.1832 2.31711 0.462681 -0.492737 0.7074
0.548888 29.0938 2.27775 0.530998 -0.335028 0.773255
1.9471 29.5352 1.0368 0.613027 -0.0871635 0.785239
2.89581 29.7643 0.550558 0.325394 -0.0550143 0.943977
3.91689 29.9008 0.2661 0.176647 -0.0324542 0.983739
4.90885 29.8676 0.367027 -0.445565 0.0119179 0.89517
5.72328 29.6441 0.938896 -0.620673 -0.22732 0.750393
5.92069 29.5819 1.08306 -0.614446 -0.227756 0.75537
5.88931 28.5367 0.895247 -0.396319 0.0241911 0.917794
4.92439 28.6436 0.540097 -0.28572 0.134995 0.948757
3.86757 28.6713 0.356239 -0.0992651 0.155351 0.982859
2.75201 28.5964 0.636038 0.351237 0.121151 0.928415
1.98568 28.4654 1.01266 0.458363 0.0321526 0.888183
2.17882 27.4626 0.945433 0.336258 0.0734763 0.938899
3.12239 27.5339 0.615334 0.294727 0.144183 0.944641
4.16047 27.5666 0.561203 -0.0524209 0.242114 0.968831
5.18943 27.5478 0.747794 -0.255483 0.0941367 0.96222
5.76444 27.5203 0.911149 -0.295746 0.00398223 0.955258
5.75318 26.5375 0.900667 -0.258811 -0.0381361 0.965175
4.61151 26.5536 0.731246 -0.0307854 0.0585067 0.997812
3.60746 26.5466 0.759761 0.08105 0.0379583 0.995987
2.52302 26.5095 0.926494 0.277868 0.0543198 0.959082
2.27463 26.495 0.996074 0.293933 0.0950241 0.951091
2.18201 25.5338 1.06025 0.333412 0.0283343 0.942355
3.17411 25.5624 0.829917 0.155149 -0.00211247 0.987889
4.30443 25.5783 0.723205 0.00643309 -0.0110967 0.999918
5.40985 25.5745 0.835223 -0.209575 0.0228503 0.977526
5.63967 25.5716 0.883691 -0.206065 0.0208159 0.978317
5.67637 24.6124 0.917255 -0.199619 0.0214275 0.979639
4.58912 24.6141 0.732888 -0.140866 0.0436002 0.989068
3.53364 24.6079 0.778874 0.147709 0.0110501 0.988969
2.4356 24.5908 1.00455 0.26599 0.00282429 0.963972
2.19918 24.5857 1.0736 0.285639 0.00359592 0.958331
2.36092 23.6443 1.0458 0.27809 0.0119747 0.96048
3.40087 23.6562 0.808086 0.142706 0.0387796 0.989005
4.42882 23.66 0.758576 -0.0876608 0.0305857 0.995681
5.46202 23.6614 0.886237 -0.174528 0.0332472 0.984091
5.61354 23.6614 0.914645 -0.200276 0.0303461 0.979269
5.70645 22.7142 0.9327 -0.192762 0.00319234 0.98124
4.51865 22.7117 0.793059 -0.0790401 0.00224185 0.996869
3.38161 22.7076 0.818258 0.124244 0.0435001 0.991298
2.30195 22.698 1.07244 0.255067 -0.00396854 0.966915
2.30633 21.7556 1.05356 0.264229 -0.0160464 0.964326
3.36582 21.764 0.82841 0.108409 0.0556711 0.992546
4.38469 21.7688 0.782217 -0.0502397 0.0277236 0.998352
5.47292 21.7716 0.891552 -0.188419 -0.027353 0.981708
5.69252 21.7718 0.933707 -0.213486 -0.0185126 0.976771
5.53068 20.8299 0.906084 -0.215103 0.00601488 0.976573
4.45267 20.8287 0.793153 -0.059587 0.00232953 0.99822
3.34359 20.8233 0.831304 0.114263 0.000127589 0.993451
2.30583 20.8155 1.05284 0.237188 -0.0344808 0.970852
2.41776 19.8783 0.999337 0.229778 -0.0282547 0.972833
3.4366 19.8843 0.835338 0.120854 0.0042675 0.992661
4.46175 19.8888 0.779703 -0.0514818 0.0410701 0.997829
5.55378 19.8903 0.910026 -0.182229 0.0180968 0.98309
5.56592 19.8903 0.912445 -0.195422 0.0292075 0.980284
5.69489 18.953 0.943136 -0.169743 -0.0032675 0.985483
4.65326 18.9534 0.802984 -0.110908 0.00384851 0.993823
3.64241 18.9508 0.807472 0.0518036 0.00545994 0.998642
2.61454 18.9439 0.947591 0.185442 -0.0210515 0.98243
2.26957 18.941 1.02691 0.228341 0.00268604 0.973578
2.38793 18.0085 0.983773 0.212618 -0.00481337 0.977124
3.40168 18.0145 0.828075 0.105656 -0.0117956 0.994333
4.43779 18.0188 0.780697 -0.0544266 -0.0237652 0.998235
5.5661 18.0186 0.913211 -0.137117 -0.0194897 0.990363
5.66316 18.0184 0.92775 -0.166383 -0.0193186 0.985872
5.65719 17.0867 0.903868 -0.141858 -0.0294582 0.989449
4.57973 17.0867 0.79252 -0.0645956 -0.0106337 0.997855
3.56057 17.0836 0.795811 0.0932975 -0.00638 0.995618
2.44302 17.0778 0.955288 0.170001 -0.0235491 0.985162
2.36606 17.0771 0.969369 0.180104 -0.0199016 0.983446
2.36307 16.1475 0.935764 0.155084 -0.0271379 0.987528
3.5274 16.1544 0.790114 0.0988373 -0.0284102 0.994698
4.53095 16.1562 0.794274 -0.0420651 -0.0165845 0.998977
5.57928 16.1549 0.885486 -0.125786 -0.0244871 0.991755
5.58228 16.1549 0.885841 -0.11773 -0.0353274 0.992417
5.64498 15.2262 0.871405 -0.106845 -0.0272086 0.993903
4.5731 15.2274 0.780319 -0.0633365 -0.0230813 0.997725
3.4849 15.226 0.775963 0.0741145 0.00465962 0.997239
2.37007 15.2191 0.90564 0.147257 -0.0321311 0.988576
2.31812 15.2187 0.913849 0.156738 -0.0369828 0.986948
2.36876 14.293 0.870351 0.128379 -0.0232374 0.991453
3.3814 14.2995 0.761455 0.0636337 -0.00394576 0.997966
4.44516 14.3004 0.750294 -0.0357626 -0.0285033 0.998954
5.50075 14.2988 0.828182 -0.101888 -0.0320853 0.994278
5.66031 13.3733 0.812786 -0.112564 -0.0434788 0.992693
4.66006 13.3754 0.729553 -0.0657639 -0.0242284 0.997541
3.4568 13.3738 0.724278 0.0545667 -0.0322984 0.997988
2.34042 13.3668 0.846116 0.136577 -0.0441006 0.989647
2.36982 12.4417 0.803676 0.156655 -0.0370359 0.986959
3.40079 12.4482 0.693636 0.0630612 -0.0408764 0.997172
4.53884 12.4508 0.690819 -0.0589386 -0.0334749 0.9977
5.58538 12.4485 0.78291 -0.108966 -0.0345906 0.993443
5.65871 11.5236 0.766653 -0.110306 -0.0259192 0.99356
4.57905 11.5266 0.670319 -0.0609429 -0.0238398 0.997857
3.4467 11.5245 0.663395 0.0703829 -0.0176706 0.997364
2.30361 11.5162 0.791194 0.143072 -0.0234337 0.989435
2.31382 10.5927 0.755957 0.144204 -0.0437833 0.988579
3.44441 10.602 0.632029 0.0719519 -0.0238024 0.997124
4.51106 10.6039 0.640097 -0.0579231 -0.0337091 0.997752
5.52359 10.6009 0.720291 -0.0827776 -0.0290072 0.996146
5.58508 10.6007 0.725395 -0.104603 -0.0350326 0.993897
5.59927 9.67792 0.690796 -0.105669 -0.0526923 0.993004
4.53005 9.68259 0.598004 -0.0705538 -0.0557674 0.995948
3.49607 9.68164 0.576189 0.0593946 -0.0600672 0.996426
2.48712 9.67324 0.681108 0.140372 -0.0577515 0.988413
2.48242 9.67319 0.681774 0.138651 -0.0559589 0.988759
2.31587 8.75117 0.649519 0.124293 -0.0621193 0.990299
3.34339 8.76194 0.535379 0.0625649 -0.0505377 0.996761
4.37304 8.76425 0.529093 -0.0813426 -0.0627095 0.994711
5.37279 8.75855 0.620245 -0.0973911 -0.0642748 0.993169
5.52703 8.75752 0.635268 -0.108095 -0.0738708 0.991392
5.61116 7.83925 0.569753 -0.116877 -0.111286 0.986892
4.5459 7.84646 0.48389 -0.0740989 -0.091102 0.993081
3.51677 7.84575 0.469098 0.0373774 -0.0556042 0.997753
2.48774 7.83587 0.553746 0.0785402 -0.0910469 0.992745
2.37447 7.83466 0.562596 0.0942901 -0.102632 0.99024
2.53499 6.92232 0.451617 0.081466 -0.102126 0.99143
2.77692 6.92592 0.430092 0.0745788 -0.125446 0.989293
5.03503 6.92987 0.425116 -0.0725391 -0.106228 0.991692
5.6113 6.9241 0.470545 -0.0898652 -0.13059 0.987355
5.74797 30.7654 1.25687 -0.689619 -0.418389 0.591081
4.85926 31.0662 0.807234 -0.0390386 -0.740005 0.671467
3.91376 31.2668 0.552106 -0.192518 -0.538453 0.820369
2.88216 31.0438 0.861654 0.846248 -0.392269 0.36054
2.64618 30.8494 1.10133 0.778645 -0.558123 0.286725
2.63787 30.842 1.1095 0.778645 -0.558123 0.286725
