1.23824 29.5024 1.58857 0.776712 -0.304071 0.536805
1.72067 30.3893 1.96598 0.608471 -0.664083 0.434461
2.4735 31.0762 1.8515 0.78201 -0.566322 0.25555
3.19525 31.8853 1.72046 0.617359 -0.778799 0.111086
4.12041 32.1011 1.77546 -0.315883 -0.878607 0.358144
5.11891 31.8211 1.77399 -0.183155 -0.862978 0.470875
5.95028 31.2167 1.91224 -0.725009 -0.550437 0.412864
6.58399 30.3707 1.97564 -0.676728 -0.479737 0.558473
6.64717 29.4153 1.46011 -0.552044 -0.422195 0.719027
6.57195 28.4828 1.08818 -0.464635 -0.127194 0.874696
6.50738 27.4657 1.06825 -0.330819 0.0214623 0.94345
6.44839 26.2967 1.01405 -0.307046 -0.0493619 0.950402
6.42664 25.2317 0.998271 -0.2626 0.0331353 0.964226
6.44847 24.0011 1.01796 -0.256921 0.0130153 0.966345
6.47739 22.8892 1.03727 -0.261754 0.0146207 0.965019
6.47079 21.8765 1.04787 -0.266726 0.00687309 0.963748
6.44892 20.836 1.03873 -0.267833 -0.010224 0.96341
6.42716 19.8168 1.02504 -0.236112 -0.022018 0.971476
6.41675 18.8131 1.00791 -0.228789 0.00298315 0.973472
6.39086 17.7243 0.970951 -0.198551 -0.0220395 0.979779
6.42493 16.6955 0.9417 -0.197038 -0.030732 0.979914
6.39093 15.5573 0.911127 -0.188529 -0.0226468 0.981778
6.39252 14.5568 0.878109 -0.177412 -0.0273681 0.983731
6.41576 13.5108 0.848745 -0.186493 -0.021056 0.98221
6.41174 12.4947 0.819496 -0.177171 -0.0319451 0.983643
6.40027 11.4441 0.786875 -0.163156 -0.0350596 0.985977
6.41688 10.3479 0.745812 -0.182345 -0.0375078 0.982519
6.4025 9.32707 0.700022 -0.158444 -0.0505889 0.986071
6.42781 8.31094 0.644693 -0.186324 -0.0790175 0.979306
6.39483 7.25359 0.538261 -0.182014 -0.114307 0.976457
6.33208 6.22619 0.390028 -0.193767 -0.137302 0.9713
5.38653 6.45558 0.303635 -0.06962 -0.135301 0.988355
4.4118 6.86317 0.296109 -0.0588102 -0.114721 0.99162
3.23551 6.8043 0.30047 0.0671539 -0.14092 0.987741
2.31145 6.36899 0.314065 0.123549 -0.133432 0.983327
1.61069 6.67432 0.455277 0.188733 -0.124263 0.9741
1.5823 7.72248 0.58381 0.184072 -0.107957 0.976763
1.58299 8.76625 0.678782 0.185007 -0.0837713 0.97916
1.58047 9.78334 0.750405 0.197992 -0.0617282 0.978258
1.59448 10.7867 0.80871 0.187988 -0.0466333 0.981064
1.57627 11.8721 0.851891 0.219977 -0.0305581 0.975026
1.57252 12.9267 0.882441 0.21128 -0.0326922 0.976801
1.57431 14.0286 0.908283 0.199979 -0.038646 0.978417
1.59901 15.0929 0.958496 0.209614 -0.0378928 0.97703
1.56545 16.1802 1.01565 0.258441 -0.0387235 0.965189
1.54513 17.2242 1.07476 0.28529 -0.046232 0.957262
1.56054 18.3578 1.1122 0.301076 -0.0313087 0.953086
1.54019 19.4655 1.16644 0.299684 -0.0479855 0.952829
1.53795 20.5761 1.20665 0.319633 -0.0222315 0.947281
1.52516 21.6084 1.22721 0.34258 -0.00858986 0.939414
1.51235 22.719 1.2343 0.3565 -0.0161286 0.934107
1.47171 23.7461 1.25635 0.343166 -0.00369428 0.939213
1.47398 24.8198 1.24335 0.360274 0.0139896 0.932741
1.4855 25.9139 1.22169 0.346939 0.0295209 0.937289
1.4525 27.0011 1.18574 0.387034 0.052609 0.920384
1.38193 28.0555 1.23979 0.580794 -0.076619 0.810437
1.26469 29.1049 1.43515 0.674674 -0.00647474 0.736467
1.23975 29.4805 1.57953 0.778106 -0.192822 0.597805
0.495173 29.1604 2.19599 0.483487 -0.440739 0.736055
0.517408 28.0205 1.82536 0.548602 -0.206822 0.810099
0.533963 27.0083 1.61255 0.422342 -0.0870116 0.902251
0.531571 25.9699 1.59163 0.36613 0.0147796 0.930446
0.530177 24.938 1.6072 0.361045 0.0113438 0.932479
0.523609 23.9029 1.61841 0.361025 0.00276868 0.932551
0.554066 22.7915 1.60486 0.36252 -0.00484241 0.931963
0.554233 21.6623 1.59059 0.353661 -0.0177015 0.935192
0.582011 20.5174 1.5451 0.337719 -0.0387777 0.940364
0.578513 19.4554 1.48837 0.320749 -0.0562549 0.945478
0.600268 18.3915 1.42145 0.307269 -0.0466913 0.950477
0.570336 17.3866 1.37636 0.292794 -0.0573283 0.954454
0.559892 16.3701 1.31692 0.284038 -0.0599957 0.956934
0.591983 15.1764 1.23692 0.279638 -0.0572566 0.958397
0.585366 14.0825 1.17502 0.261388 -0.052583 0.963785
0.564384 13.0073 1.13041 0.257967 -0.0406135 0.9653
0.559673 11.8926 1.09212 0.236564 -0.0365792 0.970927
0.596975 10.8426 1.03997 0.234739 -0.047407 0.970888
0.605616 9.70144 0.962739 0.214004 -0.0729171 0.974108
0.592653 8.63105 0.873748 0.207061 -0.0873453 0.974421
0.591671 7.62888 0.780376 0.20345 -0.0970301 0.974265
0.616497 6.56751 0.638084 0.193776 -0.154637 0.968782
0.593792 5.36787 0.426527 0.155282 -0.191968 0.969039
0.597975 4.31881 0.204382 0.172247 -0.219577 0.960116
1.47759 4.93069 0.179273 0.160872 -0.217369 0.962611
2.43403 5.30718 0.130386 0.112772 -0.197293 0.973837
3.35654 5.75551 0.126069 0.0871485 -0.171792 0.981269
4.40069 5.84035 0.131056 -0.0498719 -0.211855 0.975309
5.34675 5.32571 0.123941 -0.0894943 -0.183824 0.978876
6.36072 5.00001 0.177357 -0.182411 -0.201577 0.962303
7.20516 4.29837 0.1815 -0.186285 -0.212602 0.959212
7.40323 5.123 0.393155 -0.163117 -0.193278 0.96749
7.3983 6.14607 0.581969 -0.169586 -0.171963 0.970396
7.38942 7.1424 0.720611 -0.187443 -0.108038 0.976316
7.40825 8.19144 0.818997 -0.182509 -0.06764 0.980858
7.39608 9.30839 0.88405 -0.18038 -0.0530587 0.982164
7.39801 10.3176 0.932395 -0.189845 -0.0378806 0.981083
7.39564 11.475 0.973253 -0.188935 -0.0332985 0.981425
7.40519 12.5391 1.01118 -0.190404 -0.0340041 0.981117
7.41573 13.6976 1.05269 -0.195802 -0.0340003 0.980053
7.40833 14.8251 1.09286 -0.202354 -0.0389526 0.978537
7.40223 15.9787 1.13428 -0.21577 -0.0400187 0.975624
7.41964 17.0187 1.18517 -0.227519 -0.0550257 0.972218
7.40404 18.0553 1.23212 -0.250392 -0.0380263 0.967398
7.41929 19.1172 1.27251 -0.260507 -0.0299922 0.965004
7.4105 20.1684 1.29695 -0.267394 -0.0192744 0.963391
7.44588 21.2117 1.31996 -0.270216 -0.00768523 0.962767
7.47044 22.2318 1.3295 -0.277047 0.00474246 0.960845
7.44278 23.2379 1.31492 -0.286319 0.00453594 0.958124
7.45085 24.2816 1.30786 -0.288235 0.0137911 0.95746
7.42632 25.2932 1.30126 -0.313136 -0.0139126 0.949606
7.43349 26.3599 1.33964 -0.322681 -0.0610167 0.944506
7.45723 27.4907 1.49815 -0.44849 -0.182323 0.874994
7.471 28.5523 1.67975 -0.577748 -0.213899 0.787689
7.5093 29.4603 2.12799 -0.528829 -0.450127 0.719524
7.41909 30.3873 2.74268 -0.500722 -0.614799 0.608927
6.70935 31.1016 2.93332 -0.492073 -0.730312 0.473823
5.7637 31.7765 2.82614 -0.540331 -0.776135 0.325024
4.79819 32.1828 2.83346 -0.308227 -0.941286 0.137759
3.8205 32.3568 2.78754 0.399997 -0.915005 -0.0526157
2.93539 31.793 2.81412 0.630878 -0.769133 0.0501095
2.11473 31.1313 2.86845 0.554328 -0.787836 0.268395
1.26907 30.5926 2.91273 0.567263 -0.738047 0.352877
0.538555 29.8331 2.81356 0.59562 -0.610652 0.521863
0.509961 29.2874 2.30068 0.554811 -0.528644 0.63359
2.59799 29.8305 0.483355 0.362089 -0.0266733 0.930864
2.74499 30.826 0.683022 0.859025 -0.383933 0.338632
3.29904 31.688 0.73811 0.763253 -0.604735 0.144045
4.16012 31.789 1.21589 -0.431185 -0.777673 0.453378
5.14504 31.5266 1.22518 -0.0432673 -0.870405 0.490431
5.76482 30.7887 1.12204 -0.661346 -0.352107 0.662301
5.87123 29.6835 0.929968 -0.659686 -0.197393 0.724171
5.50472 28.7891 0.608441 -0.364144 -0.00677203 0.931318
4.6365 28.2646 0.421481 -0.225777 0.14979 0.962594
3.59893 28.3827 0.292657 0.192092 0.204978 0.957069
2.87204 29.0722 0.393734 0.319953 0.150979 0.935115
2.62249 29.7212 0.47553 0.363337 0.0132792 0.93156
3.55225 29.9302 0.177535 0.264066 0.0317112 0.963945
4.17825 29.2189 0.111082 -0.0747071 0.253057 0.950416
5.05167 29.78 0.290893 -0.366081 0.148626 0.918638
4.99425 30.7537 0.420889 -0.293171 -0.356447 0.826276
4.11532 31.1947 0.394187 -0.397899 -0.520286 0.755631
3.52718 30.514 0.186261 0.278409 -0.0596335 0.95861
3.55081 29.9376 0.17775 0.266986 0.0248543 0.963377
2.06714 29.7269 0.774324 0.698131 -0.0148557 0.715816
1.70322 29.5798 1.0902 0.690506 -0.224802 0.687507
1.88065 28.5798 0.955714 0.57025 0.0477275 0.820083
2.38 28.6758 0.66514 0.395969 0.117294 0.910742
1.94616 27.5803 0.924859 0.381558 0.0023767 0.924342
2.94947 27.6609 0.55751 0.322091 0.127298 0.938111
3.94707 27.6911 0.426316 0.0115569 0.247897 0.968717
5.09997 27.6715 0.605635 -0.20745 0.0801591 0.974956
6.00527 27.6253 0.882214 -0.320938 0.102222 0.941568
5.89514 26.655 0.854192 -0.271252 -0.0333799 0.961929
4.86615 26.6737 0.64065 -0.118797 0.0359968 0.992266
3.80855 26.676 0.647133 0.0469898 0.12281 0.991317
2.68311 26.6428 0.777572 0.198821 0.122193 0.972388
2.04069 26.6084 0.981659 0.351836 0.0737841 0.933149
2.02902 25.6611 1.02274 0.318686 -0.0124654 0.947778
3.1208 25.6929 0.746308 0.172498 0.00435848 0.985
4.12981 25.7078 0.65165 0.049633 -0.0167115 0.998628
5.34566 25.7006 0.733221 -0.173001 0.0124731 0.984843
5.87147 25.6923 0.848462 -0.232939 -0.00137651 0.97249
5.91624 24.7437 0.87874 -0.228414 0.0151277 0.973447
4.90103 24.75 0.691812 -0.139866 0.0283184 0.989765
3.74488 24.7435 0.677901 0.0982131 0.0249068 0.994854
2.62091 24.7281 0.873953 0.227382 0.0191696 0.973617
2.01928 24.7186 1.03814 0.3345 0.00757823 0.942365
2.08638 23.7812 1.03928 0.320596 0.0125495 0.947133
3.16033 23.7913 0.761416 0.216908 0.0107961 0.976132
4.21453 23.7985 0.648716 -0.0303041 -0.00566492 0.999525
5.30109 23.8013 0.763147 -0.17473 0.0360979 0.983954
5.87302 23.8004 0.879574 -0.230656 0.0321154 0.972505
5.94482 22.8596 0.894673 -0.238361 0.0141538 0.971074
4.95194 22.8583 0.740591 -0.117138 -0.00349809 0.993109
3.9046 22.854 0.681193 0.0101099 0.00217825 0.999947
2.83155 22.8482 0.846386 0.231757 -0.0260587 0.972425
2.16551 22.8432 1.02038 0.284926 0.00512689 0.958536
2.08632 21.9054 1.03618 0.300636 -0.0144942 0.953629
3.11896 21.9135 0.781317 0.209293 0.0011958 0.977852
4.27325 21.9189 0.6902 -0.013851 -0.00187406 0.999902
5.34697 21.9214 0.773848 -0.14285 0.00103992 0.989744
5.90302 21.9217 0.895422 -0.236686 0.00328393 0.971581
5.88844 20.9852 0.891279 -0.221624 -0.00184767 0.97513
4.86683 20.984 0.722043 -0.0777021 0.000664183 0.996976
3.67263 20.9815 0.713209 0.0522805 0.021967 0.998391
2.64553 20.9747 0.875594 0.203428 -0.00895447 0.979049
2.08058 20.9695 1.0268 0.309496 -0.0256637 0.950554
2.11749 20.0379 1.00716 0.295747 -0.0367614 0.954559
3.1847 20.0451 0.766769 0.149611 0.0113166 0.98868
4.29616 20.05 0.689137 -0.000433436 0.00515212 0.999987
5.30912 20.052 0.788793 -0.155328 0.0579804 0.98616
5.82018 20.051 0.88359 -0.216899 0.0180011 0.976028
5.8382 19.1196 0.886928 -0.167136 0.00266838 0.98593
4.76797 19.1196 0.72536 -0.100545 0.00609577 0.994914
3.74717 19.1169 0.709925 0.0454741 -0.0343103 0.998376
2.68893 19.112 0.85069 0.16661 -0.017449 0.985869
2.05742 19.1067 0.994702 0.268193 -0.00718323 0.963338
2.15987 18.1795 0.945026 0.21096 -0.00903439 0.977453
3.30601 18.1874 0.749315 0.128814 -0.0103119 0.991615
4.34547 18.1903 0.683118 -0.0612704 -0.030142 0.997666
5.34838 18.1905 0.799379 -0.14592 -0.0203098 0.989088
5.83811 18.1903 0.873885 -0.170326 -0.0263022 0.985037
5.75871 17.2642 0.832431 -0.14856 -0.0303192 0.988439
4.64086 17.2654 0.710477 -0.070248 -0.00766953 0.9975
3.60554 17.2635 0.71088 0.0597262 -0.0093735 0.998171
2.49228 17.2567 0.862388 0.159967 -0.0245246 0.986818
2.04402 17.2526 0.948823 0.239892 -0.049216 0.969551
2.21128 16.331 0.882159 0.177277 -0.0392327 0.983379
3.32529 16.3388 0.719349 0.120044 -0.00696836 0.992744
4.33721 16.3403 0.696367 -0.0111475 0.00847888 0.999902
5.4443 16.3407 0.780215 -0.133416 -0.00451736 0.99105
5.85256 16.3395 0.835964 -0.168164 -0.00579131 0.985742
5.81937 15.4168 0.805928 -0.140244 -0.0250132 0.989801
4.81853 15.419 0.715799 -0.0639073 -0.0243721 0.997658
3.81967 15.4177 0.682449 0.0245155 -0.00755508 0.999671
2.77452 15.4132 0.770472 0.1214 -0.0232767 0.992331
2.28787 15.4095 0.834978 0.148826 -0.0381921 0.988126
2.2734 14.4877 0.803004 0.166785 -0.0445874 0.984985
3.3581 14.4951 0.678419 0.0870327 -0.0159378 0.996078
4.44514 14.4978 0.666595 -0.058216 -0.0362276 0.997646
5.53174 14.4966 0.749214 -0.095728 -0.0253646 0.995084
5.83369 14.4954 0.784198 -0.129241 -0.0199277 0.991413
5.72145 13.5755 0.745114 -0.107351 -0.0261451 0.993877
4.67373 13.5782 0.649953 -0.0682466 -0.0317573 0.997163
3.64465 13.5772 0.634651 0.0650053 -0.0453502 0.996854
2.59155 13.5699 0.736268 0.131438 -0.022478 0.99107
2.09092 13.5656 0.808426 0.15573 -0.0243189 0.9875
2.11223 12.6471 0.768123 0.150689 -0.0218422 0.98834
3.12941 12.6557 0.635031 0.083133 -0.0505514 0.995255
4.1698 12.6593 0.595364 -0.0276107 -0.0472274 0.998502
5.21275 12.6579 0.667309 -0.0955892 -0.0160535 0.995291
5.86092 12.6559 0.737523 -0.12773 -0.0410954 0.990957
5.82334 11.7371 0.708227 -0.108969 -0.0233761 0.99377
4.80676 11.7401 0.611453 -0.0787809 -0.0219179 0.996651
3.71383 11.7394 0.563831 0.00262504 -0.0147572 0.999888
2.56999 11.7324 0.671 0.132216 -0.0397414 0.990424
2.0928 11.7281 0.738848 0.164509 -0.0375526 0.98566
2.21626 10.8108 0.698247 0.160957 -0.0194964 0.986769
3.20943 10.8205 0.570683 0.0806856 -0.0211774 0.996515
4.29799 10.8228 0.55093 -0.0606071 -0.0292138 0.997734
5.45084 10.8209 0.635871 -0.0834037 -0.0365568 0.995845
5.91145 10.8191 0.68512 -0.145135 -0.0494143 0.988177
5.85826 9.90214 0.647897 -0.120552 -0.0477195 0.991559
4.85638 9.90694 0.549441 -0.0834506 -0.0487467 0.995319
3.80299 9.90826 0.494043 0.0182106 -0.0414131 0.998976
2.63657 9.89971 0.587509 0.124457 -0.0544027 0.990732
2.07458 9.89347 0.666678 0.152672 -0.063815 0.986214
2.12813 8.97924 0.603715 0.144405 -0.0662715 0.987297
3.233 8.99093 0.481424 0.074518 -0.0578341 0.995541
4.45 8.99439 0.467094 -0.0650721 -0.0682362 0.995545
5.54421 8.98898 0.564363 -0.110605 -0.0683469 0.991512
5.81644 8.9868 0.597308 -0.111692 -0.0462542 0.992666
5.81326 8.07341 0.530872 -0.115289 -0.0760018 0.99042
4.68738 8.082 0.425701 -0.080206 -0.0747694 0.99397
3.58991 8.08203 0.400847 0.0334405 -0.0504859 0.998165
2.46946 8.07144 0.490637 0.0999558 -0.0849706 0.991357
2.10174 8.06657 0.531519 0.140244 -0.0848997 0.98647
2.11441 7.1574 0.430873 0.136661 -0.115379 0.983876
2.80239 7.16675 0.369777 0.0685186 -0.113087 0.99122
5.29969 7.16876 0.387475 -0.0761161 -0.103699 0.991692
5.8218 7.16375 0.430913 -0.117766 -0.124427 0.985215
2.3875 30.7441 1.32086 0.768301 -0.548651 0.329691
2.41716 30.7709 1.29633 0.758052 -0.549176 0.351801
2.51838 30.8512 1.21194 0.77971 -0.519417 0.349655
