1.20457 29.5378 1.48045 0.781403 -0.31205 0.51442
1.34693 28.5763 1.22253 0.657367 -0.0230939 0.753217
1.46483 27.4193 1.06543 0.42305 -0.0201021 0.905268
1.49719 26.2876 1.1046 0.36046 0.058463 0.930941
1.48661 25.1603 1.14255 0.362116 0.0288143 0.931688
1.50624 24.0192 1.14926 0.357787 0.00840789 0.933757
1.53112 22.9672 1.1435 0.345685 -0.0124918 0.93822
1.53133 21.9287 1.13798 0.326564 -0.0080932 0.945137
1.51802 20.8961 1.1295 0.344139 -0.0167092 0.93875
1.54267 19.8349 1.09262 0.310379 -0.0431003 0.949635
1.55074 18.7738 1.04308 0.286233 -0.0293936 0.957709
1.53212 17.6735 1.01435 0.265544 -0.0383424 0.963336
1.57126 16.6275 0.949596 0.277179 -0.0417798 0.959873
1.58094 15.4248 0.892812 0.256285 -0.0461841 0.965497
1.58742 14.4164 0.841243 0.230887 -0.0378453 0.972244
1.57949 13.334 0.806175 0.199741 -0.0138865 0.979692
1.57834 12.3118 0.778734 0.210903 -0.0314121 0.976999
1.55228 11.3105 0.752244 0.199608 -0.0430369 0.978918
1.57278 10.2387 0.696599 0.191528 -0.0726122 0.978707
1.55432 9.16683 0.628062 0.202188 -0.0711806 0.976748
1.56063 8.14919 0.539265 0.183365 -0.0933155 0.978465
1.60541 7.03031 0.41567 0.18318 -0.109236 0.976992
2.29021 6.85987 0.296219 0.105633 -0.123213 0.986742
3.34865 7.29845 0.261342 0.0660178 -0.106767 0.99209
4.45964 7.31176 0.256407 -0.0475273 -0.096714 0.99396
5.46186 6.91961 0.285196 -0.0937409 -0.132168 0.986577
6.31481 6.6769 0.364382 -0.146184 -0.113234 0.982458
6.40562 7.75018 0.502638 -0.172521 -0.102423 0.979543
6.41036 8.7728 0.588495 -0.167736 -0.0530006 0.984406
6.43159 9.84111 0.643093 -0.178625 -0.0392064 0.983134
6.4018 10.9116 0.678958 -0.17952 -0.0369648 0.983059
6.40164 12.0289 0.716863 -0.17382 -0.0201864 0.984468
6.39956 13.1165 0.753478 -0.174162 -0.0307533 0.984232
6.38063 14.1183 0.780971 -0.180136 -0.0309539 0.983108
6.43366 15.3065 0.823017 -0.197426 -0.0299206 0.979861
6.43558 16.3706 0.850867 -0.21111 -0.0297548 0.976971
6.43 17.4052 0.878321 -0.215464 -0.0324681 0.975709
6.40595 18.4569 0.906191 -0.205042 -0.0386118 0.977991
6.40671 19.5261 0.928721 -0.243782 -0.0157959 0.969661
6.42578 20.5878 0.94332 -0.261508 -0.00943462 0.965152
6.44009 21.6987 0.950857 -0.261669 0.00430859 0.965148
6.46929 22.8213 0.94709 -0.277066 0.00540286 0.960815
6.44228 24.0366 0.930145 -0.265744 0.0141871 0.963939
6.43506 25.0786 0.912607 -0.242545 0.015376 0.970018
6.42767 26.1976 0.911234 -0.288632 -0.0317258 0.956914
6.4753 27.2353 0.963254 -0.326973 -0.000722935 0.944667
6.58623 28.2667 0.970821 -0.447103 -0.0535756 0.890603
6.59325 29.3194 1.27065 -0.621598 -0.281893 0.730857
6.62328 30.2377 1.75879 -0.719192 -0.257447 0.645356
6.17724 31.0613 1.93291 -0.70558 -0.619721 0.34366
5.49057 31.7749 1.81266 -0.546283 -0.785983 0.245996
4.52603 32.183 1.82306 -0.384503 -0.852431 0.353169
3.40807 32.1427 1.76163 0.618489 -0.784163 0.0505923
2.55407 31.297 1.84711 0.79312 -0.578197 0.188171
1.7518 30.5482 1.93599 0.610592 -0.683927 0.397942
1.23065 29.8215 1.7085 0.744353 -0.428111 0.512504
1.20763 29.5581 1.49603 0.753751 -0.46681 0.462546
0.495272 29.1839 2.09525 0.645935 -0.385898 0.642417
0.508668 28.0961 1.74129 0.554201 -0.212999 0.804669
0.556069 27.1219 1.51493 0.423219 -0.109199 0.899423
0.556061 25.8812 1.49097 0.366153 0.0168504 0.930402
0.547014 24.8166 1.51118 0.360851 0.0120584 0.932546
0.556872 23.7241 1.51515 0.362732 0.00225984 0.931891
0.575128 22.6803 1.50537 0.359606 -0.00473166 0.933092
0.569001 21.4628 1.49245 0.354338 -0.0185738 0.934903
0.564982 20.4249 1.4593 0.333743 -0.0485472 0.941413
0.601219 19.4152 1.38972 0.318011 -0.0606721 0.946144
0.585095 18.3665 1.33775 0.304417 -0.0483364 0.951312
0.579894 17.1858 1.27431 0.286628 -0.0585472 0.956251
0.583739 16.1216 1.20751 0.283645 -0.0593538 0.957091
0.566667 15.0112 1.14751 0.278645 -0.0590689 0.958576
0.594435 13.8861 1.07375 0.266276 -0.0491106 0.96261
0.588199 12.7967 1.02745 0.247862 -0.0325082 0.96825
0.579702 11.7677 0.995901 0.233844 -0.0343774 0.971666
0.583907 10.7666 0.954311 0.239135 -0.0408279 0.970124
0.582526 9.74093 0.885374 0.213168 -0.0781659 0.973884
0.577434 8.55636 0.78384 0.206119 -0.0895602 0.97442
0.591887 7.46715 0.676164 0.208507 -0.110478 0.971706
0.596636 6.43667 0.532823 0.170182 -0.153175 0.97328
0.604865 5.385 0.339145 0.156881 -0.194403 0.968265
0.982197 4.8602 0.164779 0.170797 -0.204773 0.963793
1.80906 5.47737 0.152783 0.173172 -0.208367 0.962504
2.74558 5.90609 0.115241 0.0955666 -0.143892 0.984927
3.84014 6.40548 0.123289 0.0636199 -0.207913 0.975778
4.81577 6.0997 0.118546 -0.0872124 -0.164494 0.982515
5.74973 5.57839 0.129542 -0.117556 -0.179842 0.976559
6.6609 5.08205 0.166687 -0.177218 -0.192616 0.965139
7.38546 4.83308 0.241792 -0.16553 -0.203399 0.965002
7.36858 5.81985 0.431435 -0.167824 -0.181837 0.968902
7.38762 6.81744 0.594288 -0.198429 -0.137331 0.970446
7.40125 7.88553 0.708207 -0.183931 -0.0791868 0.979744
7.41286 9.02836 0.785566 -0.176629 -0.0593272 0.982488
7.40372 10.0376 0.836185 -0.191031 -0.0400023 0.980768
7.3924 11.1737 0.87672 -0.189279 -0.0341684 0.981329
7.39938 12.2763 0.915478 -0.190013 -0.0336677 0.981204
7.40831 13.4513 0.956711 -0.194522 -0.033117 0.980336
7.40034 14.5001 0.992502 -0.202348 -0.0378529 0.978582
7.41277 15.6184 1.03838 -0.205704 -0.0372698 0.977904
7.4196 16.6425 1.07948 -0.229738 -0.04707 0.972109
7.43807 17.7305 1.13977 -0.248204 -0.0487709 0.967479
7.4193 18.8476 1.17702 -0.257329 -0.0304109 0.965845
7.4095 19.986 1.20614 -0.266353 -0.0216367 0.963633
7.42863 21.1076 1.22708 -0.269127 -0.0101517 0.963051
7.4531 22.164 1.23733 -0.275376 0.00515918 0.961312
7.41147 23.3755 1.21647 -0.283438 0.00507149 0.958977
7.43688 24.4301 1.21325 -0.290793 0.00876266 0.956744
7.41895 25.461 1.21074 -0.311726 -0.0148915 0.950055
7.42897 26.5359 1.25711 -0.324325 -0.0628815 0.943843
7.45283 27.5298 1.39966 -0.456357 -0.123837 0.879843
7.51911 28.5799 1.59735 -0.579404 -0.218518 0.781873
7.46864 29.5032 2.00672 -0.539464 -0.446448 0.713906
7.47256 30.3706 2.62558 -0.484732 -0.578928 0.65565
6.94226 31.0401 2.94315 -0.496609 -0.719322 0.485401
6.09214 31.6595 2.8472 -0.572043 -0.733002 0.362119
5.11182 32.1674 2.84493 -0.311374 -0.939685 0.141557
4.08747 32.5019 2.78471 -0.111875 -0.986558 -0.119111
3.07812 31.9808 2.8435 0.588966 -0.807857 0.0220705
2.20531 31.281 2.87104 0.536783 -0.803449 0.257554
1.30752 30.7022 2.89882 0.537702 -0.756692 0.371879
0.561327 30.0206 2.85778 0.586986 -0.602452 0.540832
0.495029 29.1927 2.10352 0.636631 -0.49921 0.586519
2.05982 29.609 0.630801 0.698361 0.043935 0.714396
2.27779 30.5189 0.983623 0.703017 -0.584361 0.405327
2.75014 31.37 1.23157 0.787027 -0.588337 0.163921
3.42841 32.1042 1.28274 0.45387 -0.850947 0.187658
4.43283 32.0711 1.43531 -0.365682 -0.86709 0.338277
5.38641 31.6233 1.22887 -0.543852 -0.742124 0.329514
6.00474 30.6901 1.13802 -0.766899 -0.453247 0.449364
6.13638 29.7154 0.985682 -0.699729 -0.213405 0.679417
5.89422 28.8204 0.630435 -0.469466 -0.0509587 0.876384
5.16923 27.9316 0.485681 -0.278941 0.121851 0.952318
4.09408 27.3943 0.39956 -0.0584334 0.278827 0.958562
2.97956 27.6875 0.454585 0.311739 0.145593 0.938947
2.31023 28.5692 0.593973 0.388445 0.100313 0.915401
2.08821 29.4512 0.612755 0.647317 -0.0416411 0.753517
2.9886 29.716 0.181207 0.341317 -0.0259181 0.939591
2.99977 30.827 0.281591 0.554653 -0.144878 0.819372
3.51257 31.749 0.364031 0.499646 -0.354866 0.790205
4.52732 31.4109 0.506777 -0.422115 -0.72339 0.546376
5.27467 30.7677 0.436374 -0.669374 -0.306648 0.667075
5.31543 29.7523 0.315657 -0.517684 0.00970227 0.854935
4.73049 28.9028 0.215528 -0.267606 0.197144 0.942616
3.88374 28.345 0.17926 -0.102841 0.186627 0.977033
3.15421 29.1044 0.159849 0.280924 0.14957 0.948003
3.01114 29.6235 0.170468 0.341317 -0.0259182 0.939591
2.25602 27.6053 0.711657 0.319088 0.0868283 0.943739
2.06429 27.5864 0.778981 0.39858 0.052815 0.915612
2.03636 26.6216 0.879418 0.343291 0.0604702 0.93728
3.1523 26.6764 0.601253 0.166088 0.130617 0.977422
4.24965 26.6959 0.532401 0.0383289 0.0858252 0.995573
5.26557 26.6876 0.608151 -0.138382 0.0283446 0.989973
5.85357 26.677 0.751833 -0.281595 0.00467188 0.959522
5.85979 25.7263 0.746696 -0.255353 0.0223982 0.966588
4.69434 25.7371 0.557859 -0.0634589 0.00337705 0.997979
3.68398 25.7281 0.591367 0.078829 -0.00412695 0.99688
2.67386 25.7011 0.745244 0.20665 0.024487 0.978109
2.02827 25.6832 0.921682 0.321069 0.0146702 0.946942
2.10642 24.7583 0.924134 0.335544 0.00503203 0.942011
3.11969 24.7733 0.664501 0.165403 0.00636009 0.986206
4.23613 24.7835 0.557035 0.0453962 -0.0230803 0.998702
5.26147 24.7874 0.658726 -0.156346 0.00729393 0.987675
5.90526 24.7866 0.787159 -0.234536 0.0232804 0.971829
5.93482 23.8521 0.801015 -0.21862 0.0201561 0.975602
4.92797 23.8502 0.621733 -0.128609 0.0361283 0.991037
3.89945 23.844 0.566131 0.0260467 -0.00133829 0.99966
2.82174 23.8367 0.732045 0.216494 0.0163739 0.976147
2.01391 23.8307 0.965048 0.315058 0.0213503 0.948832
2.17322 22.9043 0.931284 0.290113 -0.000617198 0.956992
3.15316 22.9107 0.687559 0.188565 0.0267825 0.981696
4.15849 22.9148 0.594632 -0.0600481 -0.0170456 0.99805
5.23295 22.9199 0.685115 -0.109069 -9.53318e-07 0.994034
5.89297 22.9207 0.802604 -0.196435 -0.00606727 0.980498
5.80116 21.992 0.786135 -0.219518 0.00755592 0.975579
4.78686 21.9902 0.637539 -0.100259 -0.00907207 0.99492
3.75048 21.9871 0.62263 0.0743913 -0.0128899 0.997146
2.75717 21.9809 0.776137 0.217666 -0.00839431 0.975987
2.11589 21.9764 0.941219 0.290106 -0.0276337 0.956596
2.0947 21.05 0.940946 0.286124 -0.0322043 0.957651
3.08652 21.0579 0.699289 0.203226 -0.0143268 0.979027
4.24607 21.0643 0.611906 0.00145219 -0.00838493 0.999964
5.25083 21.0657 0.680981 -0.120486 8.39534e-05 0.992715
5.90625 21.066 0.807015 -0.2422 -0.00392128 0.970218
5.88424 20.1413 0.80626 -0.237055 0.0144518 0.971389
4.88361 20.1408 0.645949 -0.102474 0.0079572 0.994704
3.75631 20.1372 0.617583 0.0713028 0.0173122 0.997304
2.6632 20.1316 0.781322 0.209584 0.00782417 0.977759
2.04767 20.125 0.933762 0.317309 -0.0236223 0.948028
2.23838 19.206 0.872656 0.246864 -0.0126722 0.968967
3.28303 19.2148 0.678521 0.13565 -0.0218083 0.990517
4.27977 19.2199 0.606378 -0.0477896 0.0238789 0.998572
5.30809 19.2193 0.716835 -0.1544 4.10113e-05 0.988008
5.80298 19.219 0.797939 -0.17049 0.00756641 0.98533
5.75146 18.2991 0.77248 -0.179867 -0.0349943 0.983068
4.63799 18.2992 0.62582 -0.0752489 -0.0222892 0.996916
3.47384 18.2972 0.642301 0.131974 -0.00930661 0.991209
2.47598 18.29 0.803994 0.17874 -0.0329383 0.983345
2.11285 18.2867 0.873347 0.203621 -0.0462154 0.977958
2.16836 17.3708 0.849236 0.208026 -0.0471619 0.976986
3.23154 17.3787 0.665932 0.115028 -0.016157 0.993231
4.37261 17.3824 0.609127 -0.0616039 0.00932381 0.998057
5.54742 17.383 0.718262 -0.126011 -0.00350716 0.992023
5.76629 17.3824 0.751265 -0.165133 -0.045554 0.985219
5.86965 16.4657 0.751106 -0.144132 -0.00362748 0.989552
4.84123 16.4672 0.642769 -0.0725995 0.00771637 0.997331
3.67966 16.4655 0.61631 0.0368161 -0.00908142 0.999281
2.59378 16.4598 0.738673 0.163983 -0.0368106 0.985776
2.13324 16.4565 0.816183 0.184656 -0.0262292 0.982453
2.22963 15.5445 0.768527 0.166491 -0.0111507 0.98598
3.2467 15.5514 0.631294 0.0939294 -0.0282685 0.995177
4.25181 15.5541 0.60781 -0.0347997 -0.0118495 0.999324
5.38392 15.5532 0.674708 -0.077054 -0.00663549 0.997005
5.78497 15.5521 0.717678 -0.145989 -0.00125833 0.989285
5.83338 14.6404 0.705313 -0.123604 -0.0372808 0.991631
4.75867 14.6422 0.605948 -0.067975 -0.0362053 0.99703
3.64577 14.6406 0.579916 0.0647462 -0.0488682 0.996704
2.56487 14.635 0.687774 0.137023 -0.0240849 0.990275
2.10444 14.6318 0.752015 0.149976 -0.0520331 0.987319
2.20016 13.7218 0.703652 0.144909 -0.0442803 0.988454
3.24046 13.7288 0.581413 0.0824131 -0.0383847 0.995859
4.32874 13.7325 0.551929 -0.0501184 -0.0266344 0.998388
5.34436 13.7312 0.625626 -0.0989444 -0.0250131 0.994779
5.8104 13.7299 0.673453 -0.13462 -0.0218154 0.990657
5.85043 12.8202 0.653701 -0.156056 -0.036828 0.987061
4.8385 12.8228 0.554919 -0.0665131 -0.0307011 0.997313
3.78569 12.8219 0.521426 0.00654532 -0.066319 0.997777
2.74796 12.8167 0.594672 0.120131 -0.0506717 0.991464
2.27491 12.8126 0.660575 0.153277 -0.0177521 0.988024
2.13684 11.9017 0.652475 0.192816 -0.0148772 0.981122
3.14347 11.9102 0.521731 0.118069 -0.022157 0.992758
4.16189 11.9143 0.485692 -0.0279339 -0.0138231 0.999514
5.22469 11.913 0.565645 -0.0947428 -0.0217267 0.995265
5.75333 11.9114 0.621037 -0.109373 -0.0143685 0.993897
5.71065 11.0032 0.587335 -0.111614 -0.0520552 0.992387
4.61913 11.0063 0.488865 -0.062179 -0.028232 0.997666
3.52324 11.0045 0.472418 0.0701028 -0.0558471 0.995975
2.44493 10.9968 0.584878 0.135559 -0.0271817 0.990396
2.1229 10.9937 0.631212 0.173857 -0.0350365 0.984147
2.17769 10.0882 0.579965 0.154047 -0.066674 0.985811
3.19564 10.0976 0.456658 0.0842158 -0.0645119 0.994357
4.22108 10.1008 0.435942 -0.0460365 -0.043432 0.997995
5.27486 10.098 0.507628 -0.0829764 -0.0400571 0.995746
5.91348 10.0947 0.574523 -0.126753 -0.0266884 0.991575
5.84654 9.18862 0.525339 -0.111671 -0.0490824 0.992532
4.7427 9.19476 0.416953 -0.0841236 -0.0604583 0.99462
3.68012 9.19609 0.376963 0.0428518 -0.0482326 0.997917
2.59868 9.18756 0.466128 0.116431 -0.0584685 0.991476
2.12318 9.18201 0.529046 0.15037 -0.0716756 0.986028
2.07494 8.27703 0.469404 0.141057 -0.081879 0.98661
3.06911 8.28946 0.36304 0.083181 -0.0623316 0.994583
4.26643 8.29486 0.326788 -0.0315957 -0.0669597 0.997255
5.36431 8.28891 0.411796 -0.0901546 -0.0757331 0.993044
5.75846 8.28549 0.453602 -0.124299 -0.0754948 0.989369
5.81395 27.6589 0.709392 -0.316553 0.0819905 0.945025
