1.20113 29.5331 1.35517 0.71442 -0.333416 0.607109
1.34106 28.5106 1.11908 0.631619 -0.0663539 0.768929
1.43031 27.4372 0.969107 0.379205 -0.00849365 0.925274
1.49808 26.3158 1.00911 0.354331 0.0559285 0.933446
1.45192 25.2802 1.06294 0.353628 0.0223861 0.935117
1.45271 24.2426 1.07739 0.339111 0.00496994 0.940544
1.4678 23.2094 1.07344 0.346133 -0.00142154 0.938106
1.48397 22.1398 1.06619 0.341624 0.0100885 0.939623
1.48257 21.0375 1.05646 0.341491 -0.0134678 0.939788
1.49351 19.9393 1.02464 0.328541 -0.0311253 0.943977
1.51984 18.9137 0.969011 0.286851 -0.0282885 0.957557
1.54848 17.7784 0.924604 0.264223 -0.0233491 0.964154
1.529 16.7451 0.879765 0.246244 -0.032797 0.968653
1.58847 15.7183 0.818382 0.217255 -0.0318134 0.975474
1.5394 14.595 0.775367 0.220731 -0.0525211 0.973911
1.52477 13.4095 0.732276 0.216229 -0.00842167 0.976135
1.55487 12.18 0.692742 0.21273 -0.0226857 0.976848
1.54903 11.0503 0.651583 0.219145 -0.0318357 0.975173
1.55293 9.88414 0.592238 0.207755 -0.0643589 0.976058
1.5532 8.86098 0.520173 0.194208 -0.0679636 0.978603
1.57434 7.84946 0.428507 0.16604 -0.0996111 0.981075
1.78452 6.99594 0.288148 0.173939 -0.123609 0.976968
2.82438 7.51479 0.233709 0.0723187 -0.106672 0.991639
3.87621 7.80866 0.208657 -0.00221034 -0.0687511 0.997411
4.93286 7.58969 0.229045 -0.0685268 -0.0994107 0.992674
5.94426 7.05498 0.258933 -0.116804 -0.11903 0.985996
6.41524 7.57721 0.394891 -0.181955 -0.111545 0.97696
6.44249 8.70975 0.503393 -0.165428 -0.0765645 0.983219
6.43786 9.81868 0.557096 -0.180377 -0.0417697 0.982703
6.42738 10.9655 0.601543 -0.174456 -0.0338849 0.984078
6.43406 12.0153 0.6406 -0.176614 -0.0374628 0.983566
6.43511 13.0332 0.672005 -0.179156 -0.0317799 0.983292
6.42527 14.0808 0.698105 -0.185552 -0.0335865 0.982049
6.42855 15.1457 0.731353 -0.194813 -0.0260424 0.980486
6.43869 16.1537 0.75505 -0.211143 -0.044304 0.976451
6.43752 17.2164 0.786902 -0.224117 -0.0404388 0.973723
6.44527 18.2524 0.821765 -0.212693 -0.0333591 0.976547
6.4733 19.312 0.854307 -0.233526 -0.0159357 0.972181
6.454 20.426 0.863654 -0.247774 -0.00188722 0.968816
6.46669 21.4318 0.872577 -0.267987 0.00121183 0.963422
6.4535 22.5374 0.854878 -0.279772 0.012745 0.959982
6.46909 23.6544 0.845653 -0.258593 0.00348309 0.96559
6.45932 24.7802 0.831545 -0.265939 0.0148318 0.963867
6.45978 25.8518 0.826467 -0.290208 0.00800612 0.95693
6.49318 26.9927 0.870317 -0.314121 -0.0166709 0.949236
6.62793 27.9835 0.871262 -0.39509 0.100994 0.912846
6.66347 29.026 1.05882 -0.575367 -0.318845 0.753187
6.67098 29.933 1.52222 -0.683522 -0.309293 0.649621
6.5589 30.8195 1.98847 -0.755817 -0.522642 0.394444
5.8477 31.6093 1.89357 -0.675149 -0.679893 0.27361
4.95043 32.1388 1.84503 -0.295209 -0.943015 0.153541
3.99113 32.5296 1.80773 -0.204448 -0.901865 0.38058
3.10602 32.0277 1.81177 0.646215 -0.758841 0.0684915
2.4301 31.2533 1.85128 0.69228 -0.690011 0.202789
1.58125 30.545 1.9784 0.616574 -0.669724 0.413696
1.22481 29.7929 1.52007 0.765202 -0.356662 0.527532
1.21634 29.6796 1.44577 0.708705 -0.422974 0.564651
1.63352 29.8478 0.9287 0.754659 -0.297736 0.584674
1.76653 28.8478 0.76913 0.634682 0.148253 0.75842
2.20236 27.7965 0.618808 0.416683 0.0393754 0.908198
2.90079 27.1042 0.48831 0.217208 0.223481 0.947968
3.85847 26.8585 0.432304 0.0285333 0.202787 0.978807
4.82706 27.1649 0.412794 -0.0772632 0.136897 0.987568
5.58748 27.906 0.505938 -0.274102 0.120394 0.954028
6.19462 28.7911 0.675113 -0.453315 -0.0361628 0.882882
6.31702 29.8181 1.06707 -0.694882 -0.232119 0.680632
6.07698 30.8411 1.11549 -0.789279 -0.422527 0.428363
5.44366 31.7043 1.25349 -0.615097 -0.693653 0.361216
4.49525 32.2148 1.4537 -0.369104 -0.844211 0.388671
3.52978 32.3254 1.48996 0.620134 -0.780008 0.0837959
2.76824 31.5905 1.51746 0.733502 -0.653238 0.187163
2.21028 30.7748 1.32675 0.652401 -0.66423 0.364926
1.66204 30.0075 0.973217 0.698371 -0.47489 0.493935
1.65746 29.9821 0.966211 0.754659 -0.297734 0.584674
2.37204 30.0093 0.262063 0.421038 -0.00689419 0.897957
2.66158 28.9824 0.241401 0.393769 0.225863 0.891021
3.21085 28.0882 0.225025 0.231657 0.224856 0.946454
4.25751 27.9594 0.18505 -0.117267 0.228268 0.96651
4.98181 28.788 0.199171 -0.278058 0.185109 0.942462
5.53228 29.6686 0.315993 -0.563176 0.0342765 0.825626
5.43174 30.7774 0.36868 -0.594064 -0.310343 0.732988
4.69466 31.5489 0.491887 -0.394759 -0.720325 0.570244
3.79583 32.0409 0.503958 0.0335965 -0.903484 0.427303
2.95166 31.4993 0.491043 0.755241 -0.564459 0.312861
2.51807 30.5615 0.389626 0.713228 -0.501938 0.488613
2.35687 30.1246 0.259152 0.508784 -0.135042 0.819446
0.449271 29.238 2.00781 0.513572 -0.433907 0.716815
0.480758 28.2572 1.69351 0.56526 -0.214341 0.79658
0.513688 27.172 1.42106 0.45304 -0.0848832 0.884073
0.510594 25.9413 1.41774 0.371068 0.0151656 0.928482
0.491596 24.8781 1.44141 0.362301 0.0104059 0.932003
0.515891 23.855 1.43985 0.363666 0.00202149 0.931527
0.514913 22.6544 1.43879 0.365604 -0.00245169 0.930767
0.515964 21.5271 1.42498 0.347827 -0.0243358 0.937241
0.532896 20.4907 1.38231 0.336971 -0.0481674 0.940282
0.533859 19.4409 1.32434 0.318212 -0.0586173 0.946206
0.553816 18.393 1.26163 0.308294 -0.0449755 0.950227
0.543182 17.3818 1.21132 0.291413 -0.0583459 0.954816
0.551206 16.1911 1.13508 0.282276 -0.0610689 0.957387
0.555374 15.1685 1.07354 0.27377 -0.0524566 0.960364
0.538487 13.9859 1.00956 0.271707 -0.0544999 0.960836
0.550078 12.8899 0.955455 0.24765 -0.0319617 0.96832
0.556408 11.7154 0.913408 0.236247 -0.0383788 0.970935
0.562604 10.5618 0.859207 0.228946 -0.056486 0.971799
0.566238 9.4157 0.775222 0.214317 -0.0844111 0.97311
0.567065 8.26696 0.672458 0.205068 -0.0897055 0.974628
0.585755 7.18755 0.556624 0.211948 -0.118082 0.970121
0.571921 6.17144 0.404015 0.196386 -0.180658 0.96374
0.631663 5.09766 0.187191 0.159503 -0.194734 0.967799
1.34725 5.46516 0.140735 0.170765 -0.17859 0.968861
2.27651 6.06888 0.105232 0.116433 -0.151963 0.981473
3.17683 6.57748 0.0968397 0.0708224 -0.13802 0.987894
4.24536 6.80131 0.10087 -0.0066682 -0.133301 0.991053
5.16783 6.32136 0.0959692 -0.0735288 -0.13759 0.987756
6.11602 5.80058 0.124527 -0.15242 -0.146172 0.977447
6.99918 5.09823 0.1427 -0.162722 -0.192368 0.967729
7.41395 5.54077 0.295835 -0.159631 -0.180646 0.970507
7.42253 6.65656 0.491782 -0.190915 -0.145941 0.970696
7.42235 7.65063 0.605851 -0.183704 -0.0787828 0.979819
7.43583 8.75668 0.686288 -0.180056 -0.0590931 0.98188
7.43388 9.83677 0.746028 -0.182934 -0.046604 0.98202
7.41674 10.8657 0.784909 -0.190475 -0.0343509 0.981091
7.4312 11.9557 0.825248 -0.189431 -0.0337713 0.981313
7.43393 13.097 0.864872 -0.191186 -0.0333918 0.980986
7.42726 14.2371 0.902425 -0.199332 -0.0356001 0.979285
7.43143 15.3537 0.946618 -0.20605 -0.0381208 0.977799
7.43179 16.3677 0.984572 -0.230258 -0.0380241 0.972358
7.43039 17.4456 1.03872 -0.243817 -0.0464284 0.968709
7.45327 18.446 1.08602 -0.252671 -0.0312326 0.967048
7.45611 19.4819 1.11984 -0.264441 -0.0279838 0.963996
7.4471 20.5063 1.13893 -0.270003 -0.0141426 0.962749
7.46384 21.5889 1.15392 -0.26985 -0.00770577 0.962872
7.43387 22.6031 1.14071 -0.285706 0.0125072 0.958227
7.44651 23.7987 1.13541 -0.288443 0.00879664 0.957457
7.46115 24.9845 1.12633 -0.302297 -0.00809669 0.95318
7.45798 26.0211 1.14515 -0.317172 -0.0425652 0.947236
7.47269 27.1716 1.24828 -0.41492 -0.111795 0.901299
7.52835 28.2133 1.41713 -0.571428 -0.126812 0.808195
7.51747 29.219 1.75931 -0.551777 -0.382627 0.740446
7.49526 30.1692 2.34921 -0.513493 -0.55703 0.65272
7.18471 30.9775 2.95175 -0.498362 -0.730785 0.466464
6.35683 31.5745 2.92359 -0.537109 -0.72526 0.430712
5.49312 32.1498 2.869 -0.377421 -0.89197 0.219859
4.54361 32.4872 2.84702 -0.335339 -0.934829 0.108565
3.56274 32.4373 2.81192 0.497057 -0.858813 -0.123995
2.76499 31.8037 2.87369 0.653159 -0.751805 0.0763526
1.84303 31.1312 2.91867 0.511878 -0.816094 0.266099
0.987261 30.5924 2.96042 0.591425 -0.708641 0.384766
0.48501 29.8528 2.58426 0.583166 -0.622263 0.522213
0.461661 29.3262 2.08149 0.570278 -0.534784 0.616339
2.08847 26.3984 0.781438 0.347413 0.0671794 0.935303
3.14059 26.4304 0.530555 0.119357 0.0461209 0.99178
2.12038 25.4496 0.811687 0.342547 0.0312464 0.938981
3.12449 25.4729 0.560233 0.163574 0.00813139 0.986498
4.13093 25.4901 0.459998 0.0234292 -0.0414813 0.998865
5.25795 25.4964 0.538951 -0.170212 0.0399851 0.984596
5.78463 25.4977 0.646258 -0.230413 0.0467985 0.971967
5.79501 24.5406 0.674618 -0.205928 0.0174117 0.978412
4.71767 24.5369 0.492259 -0.0999779 0.047283 0.993866
3.57493 24.5255 0.521851 0.11965 0.0257254 0.992483
2.56902 24.5122 0.701483 0.246754 -0.00211098 0.969076
2.01617 24.503 0.869459 0.33393 0.0206937 0.942371
2.07305 23.56 0.86366 0.310947 0.0259851 0.950072
3.10172 23.5681 0.590746 0.182 0.0276488 0.98291
4.10043 23.5752 0.489277 -0.00481025 0.0497197 0.998752
5.25993 23.5842 0.5964 -0.159334 0.0252653 0.986901
5.81118 23.5863 0.695542 -0.21046 -0.000284029 0.977602
5.89076 22.6366 0.71978 -0.190641 0.0041144 0.981651
4.76266 22.6312 0.548661 -0.0916412 0.00120821 0.995791
3.6975 22.6265 0.521769 0.114505 0.01285 0.99334
2.58065 22.6188 0.728782 0.259051 0.0117943 0.965792
2.06334 22.6143 0.874906 0.291516 0.000836192 0.956566
1.99771 21.6696 0.888882 0.311165 -0.00516594 0.950342
2.96626 21.6771 0.644169 0.182425 -0.00265674 0.983216
4.00206 21.6837 0.528549 0.0208053 0.00674072 0.999761
5.04411 21.6878 0.571041 -0.0936328 -0.016716 0.995466
5.88222 21.6898 0.72073 -0.232205 0.00740651 0.972639
5.93436 20.7454 0.72468 -0.235477 0.018941 0.971695
4.82937 20.744 0.544533 -0.0628554 0.0227271 0.997764
3.61868 20.7384 0.552474 0.100249 -0.0113953 0.994897
2.48624 20.7311 0.736421 0.195634 -0.0139961 0.980577
2.03364 20.7262 0.860842 0.308982 -0.0251696 0.950735
2.02741 19.7856 0.8436 0.306767 -0.0154249 0.95166
3.13771 19.7947 0.612484 0.145722 0.0159283 0.989197
4.18402 19.8005 0.518056 0.0238827 0.027545 0.999335
5.19932 19.8023 0.59973 -0.134067 0.02738 0.990594
5.82988 19.8026 0.70677 -0.208594 -0.00511496 0.977989
5.86125 18.8631 0.714867 -0.177692 -0.00149728 0.984085
4.83347 18.863 0.564099 -0.117638 -0.0117256 0.992987
3.82257 18.8611 0.527678 0.0843388 0.0187832 0.99626
2.82963 18.8553 0.651376 0.167762 -0.00221818 0.985825
2.02988 18.8475 0.822473 0.220907 -0.00989209 0.975245
2.16071 17.913 0.769139 0.217003 -0.0143351 0.976066
3.25551 17.9214 0.581319 0.145961 -0.0229794 0.989023
4.26598 17.9258 0.508745 -0.0168795 4.39472e-05 0.999858
5.26111 17.927 0.604584 -0.135735 -0.0268552 0.990381
5.85191 17.9259 0.692552 -0.171853 -0.0175419 0.984966
5.85253 16.9911 0.66896 -0.146832 -0.00804374 0.989129
4.7891 16.9923 0.548298 -0.0736229 0.0114728 0.99722
3.71371 16.9904 0.526293 0.0682772 0.0278816 0.997277
2.65035 16.984 0.656848 0.151688 -0.0203529 0.988219
2.05047 16.9795 0.76394 0.223656 -0.0549542 0.973118
2.08554 16.0477 0.724425 0.191808 -0.0254428 0.981103
3.0796 16.0551 0.577188 0.109475 -0.0300722 0.993535
4.17154 16.0584 0.52358 -0.0303788 -0.0438389 0.998577
5.3667 16.059 0.597766 -0.0908812 -0.0171807 0.995714
5.83276 16.0583 0.649637 -0.12738 -0.0345278 0.991253
5.84541 15.1284 0.63558 -0.134112 -0.0353838 0.990334
4.7955 15.1299 0.537814 -0.0675807 -0.0247101 0.997408
3.71534 15.1282 0.506357 0.0319005 0.00146898 0.99949
2.69203 15.1232 0.595353 0.148635 -0.0169556 0.988747
2.20547 15.1193 0.672441 0.155217 -0.0431357 0.986938
2.23717 14.191 0.62978 0.14642 -0.0282856 0.988818
3.25924 14.198 0.509268 0.0971405 -0.0305295 0.994802
4.36548 14.2015 0.484407 -0.0126438 -0.0110049 0.99986
5.47024 14.2002 0.562877 -0.105421 -0.0258821 0.994091
5.89457 14.1989 0.613775 -0.155295 -0.0143855 0.987763
5.85669 13.271 0.58119 -0.135758 -0.0253535 0.990418
4.71971 13.2735 0.476373 -0.0524957 -0.0355713 0.997987
3.51397 13.2719 0.466629 0.0547495 -0.0367335 0.997824
2.33519 13.2639 0.579713 0.120038 -0.0368904 0.992084
2.08337 13.2615 0.615427 0.163025 -0.0355624 0.985981
2.11981 12.3345 0.584197 0.181865 -0.0393684 0.982535
3.17907 12.3431 0.455572 0.0708228 -0.025232 0.99717
4.19773 12.3463 0.423951 -0.0416051 -0.0388231 0.99838
5.42606 12.345 0.510959 -0.0976963 -0.0300206 0.994763
5.8801 12.3437 0.557332 -0.127938 -0.0319859 0.991266
5.93469 11.4168 0.540286 -0.127727 -0.0246923 0.991502
4.8409 11.4203 0.433608 -0.079884 -0.0293416 0.996372
3.79826 11.4199 0.387499 0.00377189 -0.0494247 0.998771
2.73869 11.414 0.468799 0.136178 -0.0251878 0.990364
2.0907 11.4083 0.561056 0.165935 -0.0245252 0.985832
2.15068 10.4842 0.517145 0.15805 -0.0474056 0.986293
3.18359 10.4935 0.391547 0.0923096 -0.0410463 0.994884
4.30153 10.4965 0.371767 -0.0427729 -0.0403113 0.998271
5.31376 10.4949 0.440765 -0.0819402 -0.0388119 0.995881
5.83538 10.4925 0.489991 -0.118582 -0.0409266 0.9921
5.78892 9.56863 0.453239 -0.127874 -0.037094 0.991097
4.67421 9.57377 0.347323 -0.0856333 -0.0634411 0.994305
3.58456 9.57378 0.317381 0.01302 -0.0720377 0.997317
2.43332 9.56417 0.42369 0.139348 -0.057546 0.98857
2.09247 9.55978 0.475358 0.153362 -0.0560691 0.986578
2.19727 8.63928 0.39624 0.152599 -0.0606456 0.986426
3.26864 8.651 0.281077 0.0524602 -0.0583897 0.996915
4.29746 8.65461 0.271014 -0.039605 -0.0412012 0.998366
5.37339 8.64953 0.355649 -0.101934 -0.0812039 0.991471
5.90167 8.64513 0.41513 -0.124745 -0.0686912 0.989808
5.94953 26.4663 0.679971 -0.258236 -0.0204208 0.965866
4.96695 26.4657 0.490371 -0.0709856 0.037202 0.996783
4.68566 26.4635 0.4697 -0.0558407 0.0599467 0.996638
4.64752 26.4632 0.468397 -0.0206516 0.069133 0.997394
