1.20439 29.9407 1.45193 0.719703 -0.576601 0.386727
1.9702 30.7468 1.57812 0.602739 -0.701897 0.379534
2.65457 31.5632 1.58143 0.790067 -0.586657 0.168154
2.57423 31.5177 1.86193 0.776212 -0.618579 0.12188
1.80382 30.8233 1.98376 0.593458 -0.717131 0.36468
1.246 30.064 1.5583 0.719703 -0.576601 0.386727
0.471514 29.6086 2.12641 0.645689 -0.504952 0.56164
0.617951 30.3518 2.89172 0.590607 -0.666661 0.454694
1.521 31.0354 2.91981 0.491928 -0.813915 0.30616
2.4005 31.5922 2.87851 0.572519 -0.804274 0.159265
3.26408 32.3155 2.82903 0.651858 -0.758181 0.0155432
4.18277 32.6589 2.79855 -0.190638 -0.976468 -0.0791189
5.22126 32.3037 2.83977 -0.294102 -0.948083 0.121007
6.17991 31.8204 2.89417 -0.512903 -0.809308 0.273989
7.08352 31.1424 2.93597 -0.545436 -0.706534 0.450898
7.47588 30.4134 2.41133 -0.525466 -0.575948 0.626235
7.47795 29.5873 1.82746 -0.547109 -0.413613 0.727383
7.45836 28.6327 1.36369 -0.57364 -0.232044 0.78436
7.46369 27.6109 1.20296 -0.472604 -0.0710511 0.878406
7.4277 26.5797 1.07567 -0.345582 -0.070681 0.93495
7.42757 25.5135 1.03095 -0.309591 -0.0134106 0.950756
7.43472 24.462 1.03141 -0.295634 0.0126781 0.955189
7.42089 23.35 1.0438 -0.288475 0.00657756 0.957465
7.41343 22.2729 1.0506 -0.278733 0.00710234 0.960335
7.42419 21.2606 1.05391 -0.270454 -0.00531884 0.962711
7.41064 20.2403 1.03696 -0.266806 -0.0162407 0.963612
7.41167 19.1727 1.01017 -0.262313 -0.0304345 0.964503
7.38783 18.0986 0.969077 -0.250602 -0.036615 0.967397
7.40594 17.0024 0.922597 -0.235837 -0.0552422 0.970221
7.39322 15.8463 0.869955 -0.217752 -0.0422978 0.975087
7.41237 14.8456 0.836686 -0.201465 -0.0382025 0.978749
7.39671 13.7834 0.794949 -0.197102 -0.0344164 0.979779
7.40346 12.7792 0.762896 -0.190498 -0.0336096 0.981112
7.4074 11.7183 0.7271 -0.18949 -0.0336486 0.981306
7.39479 10.7093 0.688798 -0.188746 -0.0369698 0.98133
7.38556 9.53542 0.635267 -0.179925 -0.0499855 0.982409
7.39416 8.48302 0.576384 -0.174564 -0.0619763 0.982687
7.38666 7.39907 0.489456 -0.190987 -0.0925535 0.977219
7.39706 6.28322 0.340839 -0.186901 -0.168456 0.967828
7.08187 5.51601 0.148088 -0.168966 -0.187241 0.967665
6.36616 6.21601 0.138333 -0.189132 -0.143455 0.971245
5.45759 6.71707 0.085307 -0.0847267 -0.132332 0.987499
4.45383 7.25051 0.078684 -0.0429354 -0.105452 0.99345
3.43228 7.24264 0.0837023 0.0535109 -0.105507 0.992936
2.4461 6.72978 0.0804589 0.0584153 -0.12965 0.989838
1.42478 6.1136 0.149592 0.195895 -0.126292 0.972458
0.664972 5.48736 0.17153 0.160329 -0.191513 0.968293
0.628005 6.49662 0.366971 0.182875 -0.152861 0.970806
0.590447 7.66897 0.523288 0.210816 -0.102225 0.972122
0.594349 8.75079 0.62399 0.204443 -0.0886355 0.974856
0.604577 9.77567 0.708767 0.214352 -0.0744666 0.973875
0.578596 10.8046 0.78401 0.23266 -0.0509546 0.97119
0.608112 11.8414 0.818974 0.2354 -0.0366523 0.971207
0.588704 12.9556 0.862536 0.245735 -0.0334015 0.968761
0.57304 14.1178 0.919889 0.265982 -0.0435859 0.962992
0.57055 15.1198 0.978996 0.280517 -0.0559563 0.958217
0.574818 16.1415 1.03907 0.281059 -0.0600951 0.957807
0.588362 17.3357 1.10824 0.287806 -0.0562221 0.956037
0.566408 18.3687 1.16848 0.306837 -0.0480282 0.950549
0.587364 19.3881 1.21549 0.319083 -0.0588263 0.945899
0.572968 20.5474 1.28456 0.336377 -0.0471295 0.940547
0.532398 21.5671 1.33358 0.350357 -0.0161565 0.936435
0.580524 22.607 1.32561 0.366049 -0.00133308 0.930592
0.548147 23.749 1.33683 0.363101 0.00283144 0.931743
0.541468 24.846 1.33186 0.361063 0.0105326 0.932482
0.553576 25.853 1.31192 0.363426 0.0151256 0.9315
0.592879 26.8591 1.27314 0.403423 -0.0115083 0.914941
0.505491 27.8814 1.47681 0.521299 -0.187649 0.831415
0.497861 28.8638 1.71228 0.58683 -0.156257 0.79449
0.474451 29.5601 2.09118 0.664961 -0.412385 0.622708
1.30118 28.8614 1.04249 0.68709 -0.0289083 0.725992
1.76258 28.0339 0.697701 0.47325 0.0266328 0.878357
2.30322 27.1596 0.533334 0.309512 0.120263 0.94326
3.16011 26.5804 0.424176 0.163376 0.117534 0.97936
4.21175 26.4855 0.3629 0.0408386 0.0802636 0.995124
5.14829 26.8868 0.388079 -0.151142 0.0211821 0.988285
5.84423 27.7243 0.501323 -0.320789 0.130407 0.93813
6.38036 28.5671 0.657173 -0.535074 -0.00605766 0.826524
6.55988 28.5091 0.769238 -0.479527 -0.148134 0.86395
6.47214 27.4415 0.756979 -0.333795 0.0510915 0.941205
6.453 26.4268 0.742146 -0.309148 -0.0329037 0.950377
6.45137 25.4037 0.731871 -0.262197 -0.0148917 0.9649
6.45542 24.4012 0.748386 -0.254715 0.0166798 0.966872
6.42932 23.2707 0.754515 -0.276176 0.0136097 0.961001
6.43478 22.1569 0.770773 -0.264014 0.0162253 0.964382
6.44258 21.1322 0.7779 -0.270099 -0.00493494 0.96282
6.43098 20.0091 0.761531 -0.265563 -0.0180533 0.963924
6.42814 18.9639 0.746816 -0.219195 -0.0206836 0.975462
6.40898 17.7883 0.711156 -0.241271 -0.0326332 0.9699
6.4005 16.7817 0.679209 -0.223223 -0.0190355 0.974523
6.38959 15.7511 0.649384 -0.208271 -0.0207097 0.977849
6.40286 14.6488 0.624778 -0.187016 -0.026497 0.981953
6.39699 13.5218 0.591364 -0.186171 -0.0187857 0.982338
6.41023 12.4504 0.559343 -0.187642 -0.0355353 0.981588
6.40472 11.2926 0.52335 -0.171346 -0.0411807 0.98435
6.37017 10.1927 0.478092 -0.16585 -0.0401575 0.985329
6.36513 9.09751 0.429088 -0.163484 -0.0437424 0.985576
6.36814 8.05143 0.35006 -0.1634 -0.0976882 0.981575
5.80413 7.68557 0.224423 -0.117615 -0.113666 0.986261
4.88087 8.14429 0.185825 -0.077004 -0.0819033 0.993651
3.85237 8.34529 0.148958 -0.00965379 -0.0745948 0.997167
2.79567 8.04634 0.199138 0.0860329 -0.0749599 0.993408
1.88356 7.59375 0.250834 0.171741 -0.115518 0.978346
1.58233 8.33305 0.380557 0.184947 -0.091277 0.978465
1.58931 9.34854 0.465737 0.186157 -0.0857196 0.978774
1.58571 10.5052 0.53825 0.200575 -0.0626966 0.977669
1.61515 11.5805 0.576759 0.214252 -0.0342568 0.976178
1.60524 12.6488 0.607306 0.220216 -0.01708 0.975256
1.58464 13.8275 0.639506 0.244592 -0.0280562 0.969191
1.54401 14.9639 0.700155 0.245061 -0.0271867 0.969126
1.54681 15.9672 0.746725 0.210707 -0.043002 0.976459
1.56574 17.0842 0.798917 0.284026 -0.061385 0.95685
1.53312 18.1772 0.854678 0.296866 -0.0295983 0.95446
1.53747 19.2558 0.888901 0.319223 -0.0423527 0.946733
1.53739 20.2897 0.932851 0.333226 -0.0254177 0.942491
1.49697 21.3463 0.970314 0.33699 -0.0159369 0.941359
1.5403 22.3479 0.956756 0.345245 -0.0114032 0.938443
1.52562 23.359 0.961133 0.329715 -0.00544684 0.944005
1.48835 24.389 0.969984 0.349903 0.00205896 0.936781
1.4978 25.3992 0.950727 0.369327 0.0219105 0.929023
1.5361 26.442 0.894457 0.367766 0.0603084 0.927928
1.46438 27.452 0.851218 0.413581 -0.0213347 0.909843
1.32752 28.4778 1.00591 0.620481 -0.0491186 0.782516
1.29708 28.8495 1.0459 0.675763 -0.050668 0.734875
2.03567 29.3873 0.336203 0.49334 0.204607 0.84543
2.10349 30.3425 0.592231 0.818414 -0.513026 0.255757
2.62549 31.2077 0.565716 0.870924 -0.482781 0.0917315
3.1833 32.1044 0.572695 0.749147 -0.657873 -0.0204619
4.14546 32.203 0.567355 -0.432248 -0.756276 0.485259
5.01866 31.6064 0.476616 -0.4201 -0.701886 0.575216
5.62266 30.759 0.42431 -0.703697 -0.247689 0.665238
5.77647 29.6413 0.384787 -0.634811 -0.0064368 0.772641
5.34412 28.7684 0.205445 -0.286058 0.158877 0.944948
4.76267 27.8746 0.170002 -0.229603 0.164419 0.95863
3.76846 27.443 0.198452 0.0681519 0.267651 0.961102
2.91462 27.929 0.23197 0.287388 0.154292 0.945305
2.38862 28.8318 0.278083 0.395467 0.221771 0.891266
2.14864 29.2091 0.313404 0.49334 0.204608 0.84543
3.0241 32.0076 1.653 0.69519 -0.713949 0.0835924
3.63144 32.5605 1.79572 0.572349 -0.819053 0.0396037
3.21639 32.1912 1.6092 0.69889 -0.712447 0.0602868
3.07743 32.0613 1.6677 0.69519 -0.713948 0.0835947
3.81383 32.6238 1.54994 -0.00889456 -0.95881 0.283909
4.59534 32.4164 1.60375 -0.507286 -0.837599 0.202701
5.3351 31.9356 1.35784 -0.454452 -0.858001 0.238406
6.04057 31.1457 1.24752 -0.782096 -0.545691 0.30091
6.46356 30.119 1.17745 -0.765073 -0.144086 0.624483
6.58603 29.6257 1.14696 -0.657683 -0.341366 0.671507
6.69842 30.4894 1.60947 -0.751858 -0.398549 0.504983
6.26864 31.2736 1.99352 -0.690173 -0.653951 0.309854
5.4525 31.9946 1.80972 -0.464826 -0.842646 0.271106
4.42036 32.5436 1.75686 -0.518512 -0.844934 0.109524
3.83045 32.6803 1.74119 0.033434 -0.950491 0.305181
5.40811 26.4524 0.451061 -0.224807 0.0081652 0.974369
5.88044 26.4633 0.565012 -0.266373 -0.00785601 0.963838
5.93724 25.5071 0.595897 -0.242115 0.0468815 0.969114
4.85659 25.4891 0.394526 -0.116617 0.0626643 0.991198
3.68402 25.4609 0.402229 0.108095 -0.0108634 0.994081
2.66157 25.4333 0.555585 0.175598 0.0289012 0.984038
2.00578 25.4198 0.75335 0.337087 0.0561609 0.939797
2.13424 24.5037 0.736398 0.319153 0.000874075 0.947703
3.1246 24.5217 0.49535 0.160278 0.0251934 0.98675
4.22801 24.5401 0.380155 0.00562764 0.0458345 0.998933
5.26115 24.556 0.48355 -0.154899 0.0111695 0.987867
5.8932 24.5638 0.607794 -0.232534 0.00578722 0.972571
5.80234 23.6268 0.599837 -0.206379 0.030449 0.977998
4.66615 23.6161 0.432287 -0.0949972 0.0641977 0.993405
3.59234 23.6014 0.436187 0.0984837 0.0277276 0.994752
2.52296 23.5879 0.636929 0.24574 0.00516665 0.969322
2.0474 23.5819 0.781903 0.308947 0.0288162 0.950643
2.16657 22.6623 0.749634 0.271279 -0.0062588 0.96248
3.2456 22.6724 0.497068 0.12026 0.0277891 0.992353
4.3518 22.6845 0.437255 -0.0631937 0.0026414 0.997998
5.40318 22.6929 0.543943 -0.173235 -0.00738099 0.984853
5.81214 22.6962 0.616758 -0.219043 -0.013919 0.975616
5.81755 21.7677 0.611044 -0.22029 -0.0150925 0.975318
4.74293 21.7614 0.456397 -0.0711989 0.00781103 0.997432
3.70255 21.7521 0.448786 0.0812538 0.0246875 0.996388
2.69407 21.7447 0.608638 0.243476 -0.0170251 0.969758
2.06142 21.7381 0.777617 0.320374 0.0200973 0.947078
2.04059 20.8168 0.776356 0.303759 -0.0083086 0.952713
3.08264 20.8266 0.52939 0.176735 -0.0138576 0.984161
4.07715 20.8349 0.438539 0.03536 0.0335786 0.99881
5.10757 20.8399 0.494365 -0.116404 -0.0049929 0.993189
5.84858 20.8418 0.62642 -0.226466 -0.000107937 0.974019
5.86688 19.9178 0.631452 -0.201748 0.0110967 0.979375
4.84297 19.9156 0.478024 -0.0931058 1.80835e-05 0.995656
3.83702 19.9106 0.449351 0.0940558 0.0064699 0.995546
2.81701 19.9036 0.576682 0.146046 -0.0263605 0.988927
2.14082 19.8982 0.731644 0.270155 -0.0364108 0.962128
2.13858 18.9796 0.708946 0.230976 -0.0182446 0.972788
3.14316 18.9885 0.518815 0.140458 -0.00975197 0.990039
4.14722 18.9936 0.443958 0.0159371 -0.026908 0.999511
5.31007 18.9952 0.543229 -0.141419 0.000676653 0.98995
5.84535 18.9954 0.627861 -0.175971 0.00249058 0.984392
5.79272 18.0774 0.60029 -0.155347 -0.0310996 0.98737
4.74076 18.0772 0.458953 -0.125226 -0.00238958 0.992125
3.63271 18.074 0.448781 0.121668 0.0168075 0.992429
2.62566 18.0674 0.59769 0.170076 -0.0072494 0.985404
2.03593 18.0621 0.71263 0.258481 -0.00982198 0.965966
2.13565 17.1499 0.666947 0.210013 -0.0390933 0.976917
3.2768 17.1582 0.486732 0.130309 -0.0104951 0.991418
4.27891 17.1624 0.43237 -0.0348793 0.021208 0.999166
5.30731 17.1633 0.517557 -0.120455 -0.00534547 0.992704
5.7398 17.1628 0.569237 -0.162682 -0.0231007 0.986408
5.84312 16.2492 0.571051 -0.168063 -0.036011 0.985118
4.75703 16.25 0.469155 -0.0533042 -0.0047727 0.998567
3.7052 16.2473 0.441398 0.0262021 -0.0266826 0.9993
2.68579 16.2424 0.545197 0.139564 -0.0205428 0.99
2.15257 16.238 0.630746 0.181797 -0.0432961 0.982382
2.22606 15.3283 0.58206 0.167198 -0.0364004 0.985251
3.27513 15.336 0.446121 0.120416 -0.0243126 0.992426
4.28669 15.3389 0.427108 -0.0559875 -0.0275244 0.998052
5.42351 15.3386 0.503209 -0.0986797 -0.0215243 0.994886
5.84842 15.3378 0.552909 -0.133339 -0.0412716 0.990211
5.82758 14.4288 0.527619 -0.1549 -0.0280058 0.987533
4.78955 14.4306 0.429017 -0.0693961 -0.0390844 0.996823
3.70467 14.4286 0.39947 0.0385188 0.00400428 0.99925
2.54679 14.4215 0.506727 0.131552 -0.0214358 0.991077
2.14167 14.4178 0.565664 0.139217 -0.0351731 0.989637
2.09684 13.5094 0.537775 0.157656 -0.0209498 0.987272
3.10148 13.517 0.419542 0.0732548 -0.0315124 0.996815
4.16561 13.5213 0.373828 -0.0353078 -0.0298175 0.998932
5.36175 13.5208 0.452387 -0.0958205 -0.035044 0.994782
5.87657 13.5192 0.508114 -0.128358 -0.0153254 0.99161
5.73278 12.6112 0.464985 -0.110093 -0.0331669 0.993368
4.713 12.6129 0.371383 -0.060221 -0.033317 0.997629
3.70926 12.612 0.347587 0.0348375 -0.0382477 0.998661
2.63739 12.6067 0.429651 0.11635 -0.0326658 0.992671
2.3185 12.6039 0.473888 0.144992 -0.0463124 0.988348
2.29241 11.6963 0.457491 0.149051 -0.0309419 0.988345
3.37665 11.7048 0.325811 0.0553778 -0.0101719 0.998414
4.3777 11.7071 0.326252 -0.0617234 -0.0112421 0.99803
5.46549 11.7047 0.413157 -0.0953913 -0.0370002 0.994752
5.71141 11.704 0.437801 -0.117301 -0.0331257 0.992544
5.83954 10.7979 0.421878 -0.128569 -0.0251742 0.991381
4.83759 10.8017 0.328875 -0.0770262 -0.0350998 0.996411
3.71733 10.8016 0.278992 -0.0265641 -0.0109499 0.999587
2.55461 10.793 0.389394 0.131203 -0.029176 0.990926
2.21608 10.7893 0.440985 0.149956 -0.0541097 0.987211
2.25372 9.88539 0.382686 0.152324 -0.0597398 0.986523
3.2733 9.89584 0.259553 0.0692512 -0.0745836 0.994807
4.43124 9.89823 0.261621 -0.0722633 -0.0575724 0.995723
5.49269 9.89484 0.347494 -0.088384 -0.0449417 0.995072
5.84615 9.89266 0.388582 -0.117253 -0.0232745 0.992829
5.66301 8.99015 0.321197 -0.113986 -0.0514492 0.992149
4.51386 8.99605 0.21488 -0.0779149 -0.0593591 0.995191
3.49715 8.99524 0.19819 0.0633075 -0.0601633 0.996179
2.49336 8.98492 0.297044 0.121594 -0.0669616 0.990319
2.16359 8.98104 0.337485 0.131736 -0.0758145 0.988381
2.12644 26.3429 0.675905 0.323997 0.0423049 0.945112
2.36593 26.3487 0.604301 0.280631 0.0451174 0.958755
2.44792 26.3505 0.58022 0.280631 0.0451174 0.958755
