1.19084 30.0232 1.43286 0.650473 -0.567397 0.504921
1.96045 30.8145 1.56841 0.61468 -0.727926 0.303795
2.58241 31.5804 1.59025 0.771559 -0.625227 0.117424
3.2616 32.3562 1.5838 0.666135 -0.744275 0.0481256
4.11164 32.8065 1.53477 -0.0467576 -0.895027 0.364952
4.96009 32.3186 1.48937 -0.485469 -0.864238 0.131954
5.77747 31.7563 1.35367 -0.824451 -0.504272 0.256885
6.3545 30.824 1.23354 -0.814558 -0.402471 0.417748
6.59791 30.1583 1.2341 -0.699975 -0.202799 0.684768
6.68155 30.9148 1.84178 -0.655877 -0.639637 0.397142
5.943 31.7148 1.82982 -0.737808 -0.609538 0.290005
5.12583 32.2683 1.80089 -0.492192 -0.863644 0.10893
4.3347 32.7369 1.76753 -0.63173 -0.771306 0.077484
3.52559 32.5923 1.78561 0.577671 -0.815933 0.0219888
2.90897 32.0026 1.77244 0.72479 -0.67966 0.10633
2.14768 31.1415 1.9028 0.731225 -0.605411 0.314304
1.30643 30.4519 1.88747 0.627597 -0.664317 0.405962
1.20455 30.1075 1.50997 0.657624 -0.591091 0.464661
0.466221 29.6883 2.11562 0.61891 -0.543671 0.563572
0.660268 30.5098 2.90142 0.559022 -0.732225 0.389024
1.50523 31.1128 2.91667 0.4665 -0.847927 0.251788
2.48954 31.7628 2.83886 0.655541 -0.733576 0.166057
3.41453 32.5338 2.81146 0.542944 -0.830485 -0.0533537
4.35874 32.6803 2.80664 -0.281971 -0.949821 -0.135396
5.30289 32.3499 2.83447 -0.325215 -0.933694 0.149715
6.19591 31.8806 2.85862 -0.563328 -0.77134 0.296136
7.00636 31.2898 2.91154 -0.524191 -0.746195 0.410387
7.48368 30.5872 2.41331 -0.561918 -0.587319 0.575136
7.48063 29.6609 1.76968 -0.530156 -0.429336 0.731063
7.47153 28.6218 1.25705 -0.586387 -0.254274 0.769087
7.49433 27.6292 1.11124 -0.480151 -0.0987536 0.870808
7.43256 26.5954 0.984414 -0.3536 -0.0701641 0.932762
7.43449 25.5223 0.94468 -0.304032 -0.0176391 0.952498
7.43691 24.5185 0.942712 -0.296094 0.0172534 0.955003
7.4253 23.4859 0.955601 -0.291128 0.00897404 0.956636
7.44166 22.4062 0.969621 -0.280287 0.0123014 0.959837
7.41417 21.3745 0.964941 -0.267252 -0.00495825 0.963614
7.42671 20.2568 0.955305 -0.266781 -0.0144688 0.963649
7.41643 19.222 0.927104 -0.259417 -0.0301844 0.965294
7.39284 18.0998 0.883827 -0.251197 -0.0364272 0.96725
7.43093 17.0718 0.846029 -0.236805 -0.0550052 0.969999
7.40402 15.9392 0.789961 -0.219583 -0.0420733 0.974686
7.43379 14.8984 0.757274 -0.203545 -0.0383787 0.978312
7.42649 13.8442 0.717472 -0.196616 -0.0335669 0.979906
7.40293 12.7699 0.676994 -0.190428 -0.0339772 0.981113
7.40983 11.7385 0.642681 -0.189522 -0.0337618 0.981296
7.41709 10.7358 0.608601 -0.187306 -0.0377656 0.981575
7.41681 9.66841 0.561227 -0.183026 -0.0503858 0.981813
7.39521 8.656 0.499212 -0.176848 -0.0611458 0.982337
7.40073 7.6386 0.425841 -0.199076 -0.0726042 0.977279
7.41693 6.60296 0.309707 -0.177832 -0.160638 0.970861
7.12922 5.91305 0.144599 -0.17481 -0.175126 0.968753
6.4794 6.79865 0.14136 -0.201667 -0.124573 0.9715
5.55174 7.44686 0.0824348 -0.0880515 -0.109928 0.989797
4.62481 7.93661 0.0658166 -0.0778865 -0.0779486 0.993894
3.65511 8.23398 0.0620291 0.0763541 -0.121325 0.989672
2.68089 7.58616 0.0782426 0.06847 -0.103396 0.992257
1.78363 7.14134 0.12733 0.170774 -0.116754 0.978314
1.08527 6.23762 0.142244 0.1805 -0.150676 0.971965
0.575606 6.43087 0.276147 0.186702 -0.168198 0.967901
0.587198 7.49409 0.417068 0.209813 -0.108735 0.971675
0.584429 8.53693 0.519183 0.207499 -0.0906114 0.974029
0.570095 9.58356 0.614705 0.210898 -0.083217 0.973959
0.57322 10.5983 0.68632 0.232345 -0.0580525 0.970899
0.581223 11.6371 0.731751 0.235242 -0.0375141 0.971212
0.571823 12.7123 0.772263 0.243309 -0.0298788 0.969489
0.595353 13.7817 0.809418 0.272112 -0.0482239 0.961056
0.57478 14.8951 0.878383 0.274815 -0.0579655 0.959748
0.560381 15.9381 0.94378 0.281298 -0.058263 0.95785
0.582322 17.0265 1.00499 0.285443 -0.0591133 0.956571
0.564418 18.1454 1.0712 0.295881 -0.0425059 0.954253
0.561917 19.2241 1.12527 0.318485 -0.055049 0.946327
0.545139 20.2269 1.19029 0.331042 -0.0520439 0.942179
0.524117 21.3284 1.24138 0.347071 -0.0201135 0.937623
0.563953 22.498 1.24035 0.361503 -0.000607395 0.932355
0.558016 23.5115 1.24394 0.363735 0.000316366 0.931499
0.558387 24.5874 1.23715 0.360965 0.00990506 0.932527
0.571698 25.6738 1.21655 0.361218 0.0186104 0.932285
0.589178 26.6961 1.16787 0.411736 0.0376135 0.908914
0.51358 27.777 1.31993 0.527526 -0.222673 0.819837
0.458744 28.8424 1.62545 0.624962 -0.192726 0.756372
0.468176 29.5609 2.00848 0.643738 -0.498245 0.580127
1.72758 29.7953 0.498187 0.748482 -0.102933 0.655118
2.14233 30.7248 0.575912 0.908234 -0.397123 0.131925
2.67992 31.6422 0.528995 0.870132 -0.387395 -0.304624
3.32682 32.42 0.581733 0.619384 -0.771644 -0.0844224
4.26208 32.3686 0.543875 -0.485339 -0.749275 0.450591
5.10277 31.8158 0.478563 -0.444404 -0.707503 0.549495
5.72401 31.0325 0.436409 -0.69783 -0.346839 0.613498
5.97347 30.0605 0.408733 -0.737354 -0.127501 0.663303
5.83613 28.9729 0.265698 -0.408207 0.0366579 0.906194
5.25843 28.056 0.179845 -0.264364 0.111887 0.957845
4.55941 27.238 0.173458 -0.032223 0.196025 0.979779
3.5048 27.2346 0.179884 0.0944811 0.245074 0.964014
2.70881 27.8089 0.217162 0.304625 0.145379 0.940491
2.1886 28.7233 0.30925 0.494784 0.169193 0.847488
1.73822 29.7019 0.471373 0.780708 -0.109111 0.612973
1.72951 29.7681 0.491709 0.748482 -0.102934 0.655118
1.41856 28.2044 0.819296 0.527907 -0.0370772 0.845522
1.56376 27.2967 0.720911 0.385225 0.0998245 0.917408
1.56886 26.2866 0.799382 0.358812 0.0474082 0.932205
1.52824 25.2631 0.849587 0.366109 0.0227166 0.930288
1.51576 24.2482 0.870891 0.356932 0.00983316 0.934077
1.54143 23.1182 0.869469 0.331104 0.00131232 0.943593
1.512 22.03 0.880473 0.338996 0.00198535 0.940786
1.49143 20.9788 0.878349 0.338304 -0.00804834 0.941002
1.52342 19.8951 0.833907 0.323922 -0.0376251 0.945275
1.53216 18.8733 0.791098 0.292367 -0.0191467 0.956115
1.55205 17.7244 0.7436 0.280102 -0.0248522 0.959454
1.55017 16.7015 0.701515 0.278616 -0.0358094 0.959735
1.54156 15.6229 0.644323 0.234071 -0.0401784 0.971389
1.57571 14.5577 0.586825 0.224955 -0.0415334 0.973333
1.57609 13.5 0.550558 0.201668 -0.0428545 0.97849
1.5562 12.3721 0.526706 0.223788 -0.0124984 0.974558
1.58604 11.2449 0.478391 0.226857 -0.0376569 0.9732
1.56816 10.112 0.428946 0.197616 -0.0626817 0.978273
1.56525 9.08971 0.365284 0.188364 -0.0701896 0.979588
1.88084 8.34573 0.244644 0.162824 -0.0859728 0.982902
2.8814 8.89769 0.159536 0.100866 -0.0494871 0.993601
3.93304 9.24909 0.1177 -0.0193584 -0.0670244 0.997486
4.92259 8.9362 0.160767 -0.0891922 -0.0600978 0.9942
5.91657 8.40281 0.22199 -0.107604 -0.0738534 0.991447
6.40262 8.91204 0.335557 -0.171131 -0.0632033 0.983137
6.40167 9.922 0.389517 -0.170226 -0.0317363 0.984844
6.43056 11.0251 0.430534 -0.186995 -0.0388522 0.981592
6.40605 12.0662 0.462244 -0.172245 -0.0283919 0.984523
6.39429 13.1414 0.497625 -0.169908 -0.0373272 0.984689
6.42248 14.152 0.531704 -0.184505 -0.0183424 0.982654
6.43641 15.2149 0.561394 -0.202209 -0.0244352 0.979026
6.43731 16.2752 0.590553 -0.195436 -0.0339062 0.98013
6.43977 17.294 0.617259 -0.228614 -0.030989 0.973023
6.40878 18.3649 0.639112 -0.22125 -0.0321098 0.974457
6.40731 19.4243 0.669497 -0.235334 -0.0166433 0.971697
6.44944 20.5263 0.692591 -0.256964 -0.00235486 0.966383
6.43863 21.7497 0.69375 -0.260477 -0.000780209 0.96548
6.47731 22.7652 0.683579 -0.276736 0.0135104 0.960844
6.45396 23.7667 0.662131 -0.235941 0.00421802 0.971752
6.44583 24.8381 0.64605 -0.271326 0.00927444 0.962386
6.4339 25.8665 0.638762 -0.286021 -0.00450667 0.958185
6.44186 26.9421 0.660508 -0.318668 -0.00856066 0.947828
6.58294 27.9752 0.654894 -0.412878 0.0749986 0.907693
6.20416 27.7395 0.522794 -0.351261 0.127829 0.92751
5.62423 26.8446 0.396828 -0.26927 0.0134477 0.962971
4.71764 26.2551 0.288384 -0.0680457 0.00901874 0.997641
3.65544 26.232 0.321642 0.0700628 0.0380853 0.996805
2.59418 26.5689 0.43395 0.217834 0.0588877 0.974208
1.85991 27.3922 0.587336 0.378582 0.0900383 0.921178
1.45475 28.1911 0.794907 0.563951 0.0206691 0.82555
2.06946 26.1678 0.61997 0.339465 0.0211947 0.94038
2.23749 26.1718 0.559224 0.290756 0.030588 0.956308
2.08744 25.2403 0.633306 0.314647 0.0275461 0.948809
3.16661 25.2628 0.387263 0.150675 0.0404198 0.987757
4.20143 25.2921 0.29282 -0.00608003 -0.0352771 0.999359
5.37334 25.3237 0.390308 -0.189241 0.0409527 0.981076
5.92984 25.3334 0.507967 -0.231693 0.00870178 0.97275
5.76641 24.3745 0.496524 -0.218584 0.0157701 0.975691
4.77364 24.3548 0.328911 -0.0990742 0.0178542 0.99492
3.75354 24.3365 0.314327 0.130189 -0.0086916 0.991451
2.65862 24.3184 0.49944 0.226831 0.039332 0.97314
2.02501 24.3101 0.683728 0.312562 0.0338673 0.949294
2.15634 23.378 0.667723 0.291579 0.00115854 0.956546
3.27188 23.3922 0.393387 0.155031 0.0102675 0.987856
4.47678 23.408 0.334694 -0.0507679 0.0427123 0.997797
5.48891 23.4221 0.454608 -0.164179 0.0301483 0.98597
5.94203 23.4269 0.540894 -0.223089 0.00769656 0.974768
5.88696 22.4825 0.540045 -0.22114 -0.0132806 0.975152
4.8457 22.4739 0.390466 -0.10873 -0.00240758 0.994068
3.77143 22.4641 0.359718 0.0884321 0.0221951 0.995835
2.78023 22.4519 0.508632 0.238873 0.0202418 0.97084
2.09217 22.4455 0.686627 0.279217 -0.0163783 0.960088
2.16383 21.5125 0.663254 0.269366 -0.0199231 0.962832
3.24187 21.521 0.418962 0.135931 -0.0254575 0.990391
4.27347 21.5307 0.349286 -0.0136585 -0.00543977 0.999892
5.29097 21.5374 0.427266 -0.145515 -0.0143839 0.989252
5.84674 21.5411 0.539763 -0.240659 -0.00625247 0.97059
5.89402 20.6035 0.543422 -0.220837 0.00201199 0.975309
4.86815 20.5998 0.374058 -0.0937238 -0.0145686 0.995492
3.7687 20.5916 0.360596 0.0502127 0.021451 0.998508
2.76865 20.5854 0.493548 0.196975 -0.0168697 0.980263
2.0022 20.5776 0.690791 0.301252 -0.0107694 0.953484
2.04678 19.6469 0.663426 0.265005 -0.0347143 0.963622
3.02507 19.6559 0.455084 0.161618 0.00685937 0.98683
4.20959 19.663 0.352146 0.0541776 0.0101013 0.99848
5.27901 19.6672 0.443618 -0.127841 0.0177438 0.991636
5.78974 19.6679 0.53396 -0.195555 -0.0050189 0.98068
5.87431 18.7354 0.545002 -0.170247 -0.0110787 0.985339
4.70063 18.7339 0.380944 -0.0947285 -0.0183376 0.995334
3.56429 18.7298 0.389131 0.0677642 -0.0457192 0.996653
2.53588 18.7219 0.537325 0.17731 -0.0126803 0.984073
2.12962 18.7183 0.620625 0.226647 -0.040771 0.973123
2.05447 17.7889 0.616715 0.224486 -0.0206655 0.974258
3.04925 17.7983 0.43658 0.150797 -0.00940438 0.98852
4.05688 17.8042 0.345475 0.043222 0.0186723 0.998891
5.23394 17.8063 0.429123 -0.126846 -0.00620859 0.991903
5.91738 17.8056 0.531203 -0.182576 -0.0314604 0.982688
5.79584 16.8781 0.485456 -0.126794 -0.00468736 0.991918
4.71216 16.8791 0.376295 -0.072429 0.013238 0.997286
3.67746 16.8755 0.360373 0.0633715 0.0234934 0.997713
2.663 16.8694 0.476116 0.140412 -0.0266467 0.989734
2.11463 16.8642 0.580764 0.199106 -0.0426051 0.979051
2.0612 15.9408 0.550336 0.155786 -0.0393003 0.987009
3.14528 15.9497 0.395136 0.103722 -0.0234017 0.994331
4.1992 15.9531 0.353308 -0.0439581 -0.0165641 0.998896
5.34321 15.9535 0.422618 -0.07205 -0.0163732 0.997267
5.89628 15.9527 0.483566 -0.16151 -0.0158575 0.986744
5.74451 15.0304 0.44627 -0.131226 -0.0330599 0.990801
4.73619 15.0318 0.360643 -0.071752 -0.0282349 0.997023
3.65217 15.0294 0.339309 0.0367101 -0.0554892 0.997784
2.64477 15.0236 0.428008 0.128315 -0.0332471 0.991176
2.19517 15.0198 0.489427 0.158914 -0.0390215 0.986521
2.18004 14.0981 0.463804 0.16505 -0.0264689 0.98593
3.18788 14.1051 0.342004 0.102565 -0.0297341 0.994282
4.36773 14.1095 0.306188 -0.00132923 -0.030605 0.999531
5.49501 14.1082 0.397442 -0.0998609 -0.0294159 0.994566
5.92362 14.1071 0.446635 -0.164418 -0.034443 0.985789
5.86062 13.1866 0.413493 -0.120229 -0.038406 0.992003
4.77662 13.1893 0.304474 -0.0774182 -0.0286534 0.996587
3.75094 13.1881 0.268959 0.0708263 -0.0275975 0.997107
2.7007 13.1824 0.359517 0.117519 -0.0418484 0.992189
2.20874 13.1782 0.42621 0.14963 -0.0199312 0.988541
2.16098 12.258 0.400661 0.190833 -0.0103812 0.981568
3.17708 12.2662 0.278218 0.0738313 -0.0216091 0.997037
4.2319 12.2695 0.249339 -0.0218868 -0.0335914 0.999196
5.25488 12.2687 0.321403 -0.0925232 -0.0253679 0.995387
5.81811 12.2673 0.380056 -0.139798 -0.0253521 0.989855
5.76271 11.3483 0.343154 -0.121514 -0.0393048 0.991811
4.61758 11.3513 0.243872 -0.0769381 -0.0291386 0.99661
3.56636 11.3496 0.219971 0.0330876 -0.0560163 0.997881
2.51613 11.3422 0.325746 0.133304 -0.0276001 0.990691
2.18044 11.3389 0.375135 0.166833 -0.0191947 0.985798
2.14229 10.4205 0.344525 0.159615 -0.0470767 0.986056
3.14375 10.4308 0.219482 0.0933258 -0.0450526 0.994616
4.26569 10.4344 0.196164 -0.0467771 -0.0481326 0.997745
5.43266 10.4316 0.280425 -0.0885985 -0.0341838 0.995481
5.89992 10.4296 0.327148 -0.144507 -0.0503559 0.988222
5.8481 9.51296 0.288131 -0.129074 -0.0520761 0.990267
4.88174 9.5181 0.191177 -0.082919 -0.0611844 0.994676
2.91086 9.51286 0.189987 0.0999841 -0.0588775 0.993246
2.23507 9.50496 0.278552 0.146563 -0.0515276 0.987858
2.16896 9.50415 0.288318 0.146563 -0.0515276 0.987858
