1.20491 30.2045 1.47599 0.651667 -0.58073 0.487937
1.89741 30.8917 1.55136 0.610636 -0.713597 0.343369
2.52812 31.6507 1.5138 0.836403 -0.530331 0.0854435
3.10946 32.3585 1.60216 0.699224 -0.711762 -0.0124324
3.15 32.3972 1.70539 0.667606 -0.743643 0.0229536
2.47612 31.5976 1.69341 0.836403 -0.530331 0.085443
1.75663 30.9386 1.92322 0.6223 -0.717963 0.311884
1.21165 30.2654 1.53945 0.646964 -0.584337 0.489846
1.20511 30.218 1.49178 0.651666 -0.580732 0.487936
0.446686 29.7177 1.97525 0.67359 -0.578417 0.46012
0.541839 30.4226 2.71985 0.631376 -0.608346 0.480915
1.24767 31.0421 2.89235 0.519746 -0.808641 0.275617
2.14952 31.5741 2.84018 0.638318 -0.736132 0.21813
2.9202 32.2243 2.81723 0.666807 -0.744288 0.0374628
3.76494 32.8469 2.78223 0.233205 -0.928328 -0.129781
4.83939 32.5749 2.79785 -0.372727 -0.925872 0.0619311
5.82912 32.2202 2.83714 -0.432825 -0.863508 0.223309
6.70926 31.6066 2.88716 -0.602412 -0.715473 0.352155
7.44705 30.9303 2.68849 -0.506677 -0.738399 0.445023
7.48806 30.1976 1.98691 -0.502968 -0.470709 0.724438
7.48214 29.289 1.42932 -0.545118 -0.401699 0.735856
7.47277 28.3332 1.06617 -0.534215 -0.166582 0.828752
7.41484 27.2708 0.959439 -0.422856 -0.0413169 0.904209
7.45271 26.1771 0.878612 -0.313019 -0.0400441 0.948901
7.41088 25.1745 0.842707 -0.299426 -0.00356856 0.954113
7.43012 24.1668 0.859029 -0.295676 0.0198942 0.955073
7.41268 23.0283 0.867893 -0.287461 0.00532243 0.957777
7.41754 21.989 0.878456 -0.273238 0.00771855 0.961905
7.40419 20.8869 0.870837 -0.267704 -0.0116453 0.963431
7.40365 19.8826 0.854503 -0.263546 -0.0209258 0.96442
7.39546 18.8595 0.822223 -0.258852 -0.0304238 0.965438
7.40212 17.832 0.78905 -0.245071 -0.0415818 0.968613
7.41593 16.8028 0.742712 -0.233539 -0.0451033 0.971301
7.37974 15.7153 0.691461 -0.211164 -0.0327074 0.976889
7.40822 14.7071 0.659166 -0.200668 -0.0396103 0.978858
7.39653 13.6882 0.620538 -0.193646 -0.0328293 0.980522
7.38703 12.6527 0.584455 -0.190397 -0.0340971 0.981115
7.39516 11.4929 0.545671 -0.189149 -0.0342163 0.981352
7.40039 10.417 0.507399 -0.188478 -0.0427306 0.981135
7.38401 9.21413 0.444144 -0.176408 -0.0551793 0.982769
7.37289 8.16918 0.376341 -0.177909 -0.0687858 0.98164
7.43062 6.95596 0.274846 -0.188349 -0.127475 0.973653
7.02527 6.56544 0.137314 -0.206481 -0.144287 0.967754
6.56663 7.49037 0.153056 -0.218077 -0.117122 0.968878
5.73557 8.10163 0.0790363 -0.116607 -0.10144 0.98742
4.92744 8.80987 0.066222 -0.0877308 -0.0663665 0.99393
4.26879 9.66695 0.0635485 -0.0681143 -0.0654817 0.995467
3.32236 9.61193 0.0681492 0.0791261 -0.0760429 0.993812
2.81279 8.73049 0.0706717 0.102861 -0.0548707 0.993181
2.09742 7.99994 0.0878226 0.125951 -0.0981897 0.986829
1.24499 7.22277 0.152458 0.212569 -0.113924 0.970478
0.715876 6.38472 0.151082 0.185533 -0.149441 0.971198
0.618688 7.22055 0.291191 0.217671 -0.124472 0.9679
0.585988 8.24854 0.405577 0.207374 -0.0909865 0.974019
0.600963 9.36249 0.502856 0.210403 -0.0835355 0.974037
0.597806 10.3585 0.580883 0.226984 -0.059272 0.972092
0.587493 11.471 0.636986 0.236034 -0.0391452 0.970956
0.604985 12.52 0.67101 0.240679 -0.0348864 0.969976
0.613198 13.5253 0.704234 0.265211 -0.0318837 0.963495
0.56888 14.6216 0.775271 0.277641 -0.0583538 0.958911
0.582598 15.8143 0.843136 0.281346 -0.0577314 0.957868
0.583371 16.9652 0.913932 0.285916 -0.0593199 0.956417
0.584489 18.1409 0.977245 0.300267 -0.0441705 0.952832
0.577738 19.184 1.02826 0.309434 -0.0473504 0.949741
0.569614 20.2511 1.09266 0.326708 -0.0498768 0.943799
0.573322 21.2818 1.13344 0.342528 -0.0246559 0.939156
0.567153 22.3863 1.15119 0.362555 -0.00394973 0.931946
0.575381 23.398 1.14717 0.365195 -0.00036449 0.930931
0.578907 24.4281 1.13977 0.362913 0.008928 0.93178
0.575083 25.4827 1.12738 0.368123 0.0114337 0.929707
0.574564 26.5562 1.09196 0.388019 0.0299792 0.921164
0.524103 27.5672 1.16849 0.469539 -0.14608 0.870743
0.496906 28.5697 1.43428 0.576701 -0.197247 0.79199
0.454879 29.513 1.7904 0.641704 -0.390628 0.66002
0.441406 29.657 1.90673 0.711226 -0.497074 0.488118
1.61715 29.7461 0.465947 0.779783 -0.134097 0.611519
1.93571 28.6681 0.347314 0.526925 0.194496 0.827358
2.4154 27.7461 0.232167 0.379017 0.121311 0.917404
3.08079 27.0004 0.191356 0.16554 0.148306 0.974988
4.11244 26.8304 0.150314 0.00089579 0.162405 0.986724
5.21089 27.1505 0.172196 -0.230977 0.108731 0.966596
5.7552 28.2381 0.194648 -0.308705 0.109565 0.944826
6.2421 29.1986 0.376425 -0.643414 -0.0870814 0.75804
6.12097 30.2469 0.432398 -0.741645 -0.0878417 0.664364
5.80418 31.2222 0.441159 -0.711112 -0.432299 0.539792
5.09064 32.0663 0.532571 -0.452225 -0.756801 0.471959
4.13935 32.6957 0.566017 -0.339307 -0.78144 0.523662
3.1872 32.4874 0.603489 0.523872 -0.818754 -0.234948
2.42183 31.7807 0.547965 0.773634 -0.495673 -0.38173
2.02417 30.7989 0.585325 0.927831 -0.331798 -0.170409
1.62604 29.8402 0.475232 0.813581 -0.0950857 0.56977
1.45035 27.3539 0.671717 0.410345 0.0353062 0.911192
1.54805 26.409 0.70289 0.358422 0.0528328 0.932063
1.54466 25.3729 0.747296 0.365189 0.0249704 0.930597
1.53295 24.2187 0.773511 0.346829 0.00589791 0.937869
1.52602 23.1701 0.782372 0.336812 0.0131564 0.941479
1.52587 22.0687 0.789124 0.341612 0.00176732 0.939839
1.52192 21.0532 0.780805 0.334774 -0.00843933 0.942261
1.5329 19.8659 0.742049 0.31986 -0.0360899 0.946737
1.5479 18.8437 0.698062 0.305569 -0.0303389 0.951661
1.56699 17.8148 0.656385 0.29151 -0.0437077 0.955539
1.56336 16.7973 0.615528 0.265195 -0.0362806 0.963512
1.54449 15.5949 0.558806 0.267837 -0.0564285 0.96181
1.54631 14.5592 0.513365 0.216909 -0.0496045 0.974931
1.60874 13.5311 0.463205 0.216001 -0.0296718 0.97589
1.60091 12.4356 0.432029 0.22567 -0.0226755 0.973913
1.60027 11.3145 0.39653 0.2053 -0.0414656 0.97782
1.61026 10.2945 0.350416 0.189732 -0.0443031 0.980836
1.58207 9.2737 0.28837 0.184724 -0.086541 0.978973
2.08854 9.58866 0.218376 0.14619 -0.0483015 0.988077
2.77096 10.4294 0.174641 0.113503 -0.0577114 0.99186
3.72938 10.7998 0.104616 0.0234128 -0.0211719 0.998114
4.86256 10.4453 0.14979 -0.0726261 -0.0404807 0.996531
5.5346 9.70926 0.172756 -0.112904 -0.0394801 0.992806
6.37411 9.04568 0.254619 -0.163964 -0.0566826 0.984836
6.40297 10.1327 0.306791 -0.169065 -0.0425153 0.98464
6.39103 11.2575 0.346214 -0.165205 -0.0120971 0.986185
6.38815 12.3528 0.382817 -0.182289 -0.0341719 0.98264
6.35507 13.4078 0.410545 -0.186642 -0.0154212 0.982307
6.3859 14.451 0.444943 -0.179971 -0.019752 0.983474
6.38383 15.5224 0.474521 -0.198521 -0.0269673 0.979717
6.42141 16.5706 0.509859 -0.211855 -0.0202969 0.976851
6.41651 17.5771 0.535715 -0.226521 -0.0393857 0.97321
6.40886 18.6393 0.562846 -0.214206 -0.0385073 0.976029
6.40248 19.7117 0.586776 -0.233329 -0.012341 0.972306
6.42769 20.9006 0.600189 -0.262803 -0.0077495 0.964817
6.44787 22.0106 0.600432 -0.270785 0.0148562 0.962525
6.43989 23.0183 0.584331 -0.257887 0.00592242 0.966157
6.45571 24.155 0.57547 -0.263582 0.00474852 0.964625
6.4432 25.2916 0.552056 -0.281254 0.00817879 0.959599
6.43082 26.3224 0.550305 -0.299567 -0.00965104 0.954012
6.49884 27.3552 0.568287 -0.333072 0.0671054 0.94051
5.96999 26.5288 0.406385 -0.311396 -0.00884313 0.950239
5.17713 25.9543 0.251079 -0.14622 -0.0382764 0.988139
4.10132 25.8138 0.207656 0.0675615 0.0177214 0.996712
3.08663 25.9568 0.292917 0.162652 0.00887122 0.985846
2.14324 26.4073 0.487761 0.290699 0.0499457 0.95551
1.57988 27.2429 0.618406 0.389631 0.0766165 0.917452
1.55718 27.2869 0.625642 0.405959 0.0469976 0.91258
3.62891 32.8058 1.74738 0.633487 -0.770617 0.0696004
4.57489 32.7021 1.7582 -0.464145 -0.885083 -0.0346206
5.45057 32.2116 1.77972 -0.427605 -0.886051 0.16444
6.19968 31.6056 1.96354 -0.675005 -0.661995 0.325048
6.71748 30.8656 1.71964 -0.737869 -0.504031 0.445606
6.45963 30.9428 1.30043 -0.750435 -0.54963 0.364264
5.83879 31.7891 1.4266 -0.731481 -0.649261 0.208316
5.06239 32.38 1.52929 -0.48228 -0.87391 0.0607195
4.30665 32.8426 1.70025 -0.534608 -0.837449 0.00327596
3.65487 32.8179 1.64496 0.633483 -0.77062 0.0696047
3.46531 25.3409 0.2526 0.127282 0.00813758 0.991833
2.41173 25.3161 0.443563 0.268078 0.0410052 0.962524
2.03458 25.312 0.561345 0.323046 0.0477675 0.945177
2.15242 24.4007 0.550458 0.316953 0.0163263 0.948301
3.28003 24.4189 0.286453 0.182166 0.00956054 0.983221
4.48305 24.4455 0.22034 -0.0937077 0.0511079 0.994287
5.51939 24.4706 0.35715 -0.190466 0.0133037 0.981604
5.89098 24.4778 0.431231 -0.215025 0.0121923 0.976533
5.85299 23.5418 0.435538 -0.20258 0.0215581 0.979028
4.7723 23.5254 0.275785 -0.104791 0.034223 0.993905
3.6547 23.5087 0.264236 0.102917 0.0411722 0.993837
2.54297 23.4908 0.458575 0.242027 0.0359014 0.969605
2.01691 23.4849 0.615575 0.292873 0.00746071 0.956122
2.09265 22.5714 0.599318 0.273986 0.00385318 0.961726
3.18192 22.5835 0.333191 0.164546 0.0239911 0.986078
4.26301 22.5963 0.254654 -0.0616071 -0.00385569 0.998093
5.3582 22.6096 0.356654 -0.139202 -0.0222778 0.990013
5.86249 22.6149 0.443269 -0.184048 0.0184845 0.982743
5.91434 21.6913 0.461138 -0.22757 0.012006 0.973688
4.84658 21.6837 0.292666 -0.0839358 -0.000841563 0.996471
3.7085 21.6719 0.273179 0.0487793 0.0141566 0.998709
2.66786 21.663 0.436556 0.20849 -0.0152731 0.977905
2.0257 21.6578 0.613156 0.323254 -0.0114156 0.946243
2.04242 20.7405 0.593519 0.322529 -0.0260944 0.9462
3.06249 20.7508 0.35716 0.153031 -0.0178604 0.98806
4.11888 20.7605 0.259887 -0.0166222 0.00414713 0.999853
5.26029 20.7656 0.3438 -0.13284 -0.00827695 0.991103
5.78689 20.7685 0.43815 -0.220361 0.017204 0.975267
5.86918 19.8505 0.466179 -0.195917 0.0106753 0.980562
4.7556 19.848 0.294037 -0.1209 0.0198383 0.992466
3.69096 19.8406 0.291254 0.085946 -0.00316336 0.996295
2.57835 19.8323 0.449105 0.177959 -0.00988592 0.983988
2.23875 19.8293 0.520326 0.262821 0.00186399 0.964843
2.12469 18.9146 0.541291 0.252642 -0.00646831 0.967538
3.19557 18.9256 0.339179 0.153502 -0.0125968 0.988068
4.2992 18.9311 0.258368 -0.0288348 -0.00603618 0.999566
5.40287 18.9343 0.388018 -0.14722 -0.00696134 0.989079
5.7187 18.9346 0.433071 -0.171272 -0.0240272 0.984931
5.82654 18.0212 0.434689 -0.177501 -0.0275701 0.983734
4.78358 18.0212 0.299329 -0.0998192 -0.0193261 0.994818
3.74286 18.0175 0.268982 0.120442 0.0101882 0.992668
2.66528 18.0094 0.413649 0.157852 -0.0159264 0.987334
2.07783 18.0034 0.530845 0.236515 -0.00413332 0.971619
2.15907 17.0952 0.488935 0.182002 0.0066581 0.983276
3.16857 17.1032 0.327093 0.131139 -0.0181378 0.991198
4.16684 17.1083 0.25926 -0.0275532 0.011914 0.999549
5.21418 17.1103 0.339033 -0.104591 -0.0119868 0.994443
5.81878 17.1098 0.406564 -0.14491 -0.0356067 0.988804
5.84649 16.2005 0.396793 -0.135776 -0.0261044 0.990396
4.62217 16.2001 0.292188 -0.0511078 -0.00452966 0.998683
3.58621 16.1981 0.270572 0.0464464 -0.0495074 0.997693
2.56872 16.1923 0.39186 0.14785 -0.0383393 0.988266
2.13634 16.1885 0.462308 0.166351 -0.0371569 0.985366
2.20846 15.2831 0.412236 0.161124 -0.0342635 0.986339
3.21769 15.2903 0.280597 0.0530721 -0.0270015 0.998226
4.27386 15.2943 0.257203 -0.0477773 -0.0375262 0.998153
5.48583 15.2939 0.345483 -0.113774 -0.0135371 0.993414
5.79114 15.2933 0.377323 -0.121191 -0.0423603 0.991725
5.81545 14.3875 0.350942 -0.158028 -0.0267155 0.987073
4.68951 14.3889 0.251428 -0.0583774 -0.0359709 0.997646
3.5876 14.3868 0.233402 0.0604584 -0.0182403 0.998004
2.5801 14.3812 0.329707 0.12533 -0.0249516 0.991801
2.08392 14.3771 0.39784 0.137742 -0.0316762 0.989962
2.12138 13.4738 0.362623 0.154009 -0.0413538 0.987204
3.18863 13.4816 0.233452 0.0998164 -0.037099 0.994314
4.26876 13.4851 0.198751 -0.0593239 -0.0291276 0.997814
5.28977 13.4851 0.27343 -0.09688 -0.0303008 0.994835
5.71241 13.4839 0.319327 -0.109306 -0.0230398 0.993741
5.83883 12.5806 0.304551 -0.144208 -0.0272497 0.989172
4.75525 12.5825 0.202589 -0.071286 -0.024976 0.997143
3.72995 12.5813 0.168612 0.0361215 -0.0412757 0.998495
2.65883 12.5748 0.254768 0.126225 -0.0413254 0.99114
2.16184 12.571 0.325848 0.170532 -0.0477018 0.984197
2.14917 11.6677 0.299195 0.167819 -0.0178889 0.985656
3.21193 11.6768 0.165007 0.0840362 -0.0350261 0.995847
4.32118 11.6808 0.147281 -0.0569329 -0.0287911 0.997963
5.33161 11.68 0.225894 -0.0912879 -0.0221469 0.995578
5.79512 11.6782 0.27841 -0.119406 -0.0355782 0.992208
5.71133 10.7774 0.233262 -0.137265 -0.0409988 0.989686
5.3123 10.7788 0.197423 -0.087343 -0.0369614 0.995492
2.35995 10.7673 0.245207 0.140441 -0.0345937 0.989484
2.28005 10.7664 0.256519 0.140441 -0.0345937 0.989484
5.06637 25.3969 0.254929 -0.0930086 0.0797641 0.992465
5.88977 25.4202 0.408862 -0.215742 0.0265251 0.97609
5.92658 25.421 0.416975 -0.215742 0.0265249 0.97609
