1.21315 30.4554 1.58398 0.685832 -0.606244 0.402376
1.87625 30.9914 1.51721 0.636468 -0.73441 0.23569
2.51385 31.7804 1.51659 0.805129 -0.593023 0.00551715
3.12279 32.5035 1.58357 0.660064 -0.740285 -0.0942913
2.68723 32.0224 1.85203 0.776696 -0.628348 -0.0103216
1.90614 31.1579 1.88112 0.551768 -0.793183 0.257706
1.21684 30.5176 1.6753 0.63293 -0.669237 0.381549
0.460117 29.9809 2.10456 0.63673 -0.590304 0.496081
0.586155 30.6264 2.84289 0.59255 -0.720568 0.360093
1.45889 31.2464 2.89124 0.465732 -0.845624 0.25919
2.32238 31.8046 2.85877 0.615098 -0.770764 0.166063
3.08444 32.4974 2.81671 0.643679 -0.765254 0.00800546
3.99733 32.9316 2.81035 0.0609286 -0.997938 0.0201755
4.9889 32.5981 2.78881 -0.392725 -0.91891 0.0278989
6.04571 32.1636 2.85217 -0.555992 -0.810245 0.185406
6.88109 31.546 2.88393 -0.543567 -0.741828 0.392717
7.48021 30.8273 2.44107 -0.517861 -0.69182 0.502781
7.48341 29.9399 1.70227 -0.5207 -0.44108 0.730773
7.46547 29.047 1.18721 -0.545478 -0.330069 0.769317
7.49186 28.0553 0.925223 -0.545469 -0.0940328 0.83098
7.44078 26.966 0.833674 -0.361411 -0.0713312 0.929012
7.41479 25.9449 0.765169 -0.309916 -0.0218224 0.950514
7.39588 24.8354 0.745589 -0.303233 0.00809994 0.952856
7.43291 23.8082 0.776827 -0.294504 0.0160669 0.955515
7.41517 22.7736 0.783892 -0.281824 0.00819978 0.959431
7.42231 21.725 0.794409 -0.272614 0.00132521 0.962112
7.41479 20.6127 0.782986 -0.268923 -0.0136504 0.963065
7.39428 19.4794 0.753599 -0.264333 -0.0284008 0.964013
7.41746 18.4215 0.726218 -0.254833 -0.0335074 0.966404
7.39533 17.2097 0.671427 -0.237972 -0.0468887 0.970123
7.39943 16.1527 0.62525 -0.222044 -0.0362109 0.974346
7.41232 15.0339 0.586515 -0.204021 -0.0352552 0.978329
7.41543 13.8685 0.545035 -0.195683 -0.031527 0.98016
7.41089 12.7686 0.507569 -0.190451 -0.0339624 0.981109
7.40687 11.7193 0.470254 -0.189698 -0.0341186 0.98125
7.38508 10.556 0.424351 -0.188309 -0.0378822 0.981379
7.4063 9.53499 0.379398 -0.181029 -0.0533039 0.982032
7.39463 8.39186 0.30966 -0.176247 -0.0641082 0.982256
7.37919 7.33177 0.218724 -0.199978 -0.109627 0.973646
7.13802 7.12846 0.146298 -0.199978 -0.109627 0.973646
6.66298 8.0308 0.137414 -0.200136 -0.0943218 0.975166
5.97653 8.77147 0.0855252 -0.129934 -0.0679752 0.989154
5.26961 9.667 0.0630029 -0.0999749 -0.0448742 0.99391
4.63754 10.631 0.051197 -0.0734963 -0.0401825 0.996486
4.05873 11.509 0.0459183 -0.0656812 -0.073079 0.995161
3.15548 11.1479 0.0703524 0.104956 -0.0257126 0.994063
2.71235 10.212 0.0835334 0.124631 -0.0619337 0.990268
2.25792 9.2568 0.0879121 0.14223 -0.0614647 0.987835
1.60239 8.45343 0.129893 0.170044 -0.0969533 0.980655
0.985031 7.49419 0.154713 0.221748 -0.108092 0.969078
0.609875 7.31116 0.217217 0.21473 -0.121378 0.969098
0.615296 8.43248 0.329361 0.206807 -0.0910025 0.974135
0.601454 9.57679 0.433571 0.208873 -0.0812863 0.974556
0.605022 10.6204 0.507068 0.230812 -0.0533242 0.971508
0.596207 11.6419 0.555669 0.232852 -0.0382483 0.97176
0.581522 12.6737 0.596056 0.240057 -0.0304364 0.970279
0.597377 13.7124 0.630373 0.258296 -0.0473876 0.964875
0.567339 14.763 0.697316 0.277059 -0.0582146 0.959088
0.586107 15.8617 0.758465 0.281137 -0.0575103 0.957943
0.563178 16.8776 0.827518 0.284256 -0.0581034 0.956986
0.598486 17.9087 0.872996 0.29802 -0.0419731 0.953636
0.553228 18.9862 0.937978 0.314234 -0.0489154 0.948085
0.572727 20.072 0.995942 0.322532 -0.0560123 0.944883
0.563277 21.0805 1.04336 0.339512 -0.0281694 0.940139
0.57145 22.2196 1.06053 0.360613 -0.00115614 0.932715
0.543136 23.3061 1.07018 0.368096 0.00175005 0.929785
0.589826 24.406 1.04572 0.362126 0.0117489 0.932055
0.580516 25.5289 1.03411 0.364092 0.0159812 0.931222
0.549074 26.6535 1.00717 0.397968 0.0316351 0.916332
0.530756 27.7689 1.09982 0.539843 -0.188333 0.820334
0.514511 28.7963 1.36726 0.602226 -0.189478 0.774203
0.47926 29.7411 1.83941 0.615846 -0.493211 0.614391
0.465524 29.8438 1.93563 0.62765 -0.540061 0.555507
1.4799 29.93 0.516234 0.76304 -0.239606 0.583294
1.62603 28.9255 0.394551 0.597484 0.135102 0.790418
2.09371 27.9241 0.249494 0.397451 0.068508 0.914793
2.57752 26.9916 0.199125 0.229902 0.214002 0.942364
3.52657 26.622 0.124396 0.0313299 0.186048 0.982041
4.52496 26.5068 0.0886997 0.0289233 0.0616467 0.995989
5.54144 26.939 0.177529 -0.286658 0.105665 0.952188
6.00827 27.9993 0.206088 -0.337755 0.0825924 0.937603
6.38884 28.9266 0.353329 -0.569511 -0.163455 0.805568
6.32658 29.9346 0.448289 -0.775069 -0.061875 0.628278
6.03963 31.068 0.50102 -0.732827 -0.434293 0.523789
5.49093 31.9599 0.54945 -0.849419 -0.434065 0.300124
4.62563 32.6084 0.54148 -0.642457 -0.71253 0.278492
3.59947 32.8718 0.606847 0.324484 -0.925602 -0.0727077
2.69461 32.3651 0.545079 0.566071 -0.75995 -0.319438
2.00689 31.6159 0.51881 0.762525 -0.358733 -0.526346
1.7493 30.5837 0.568824 0.923024 -0.304032 0.235777
1.53111 30.0787 0.546113 0.765927 -0.369444 0.526182
3.32791 32.6769 1.74943 0.649356 -0.760252 0.018789
3.39702 32.7335 1.6495 0.649353 -0.760255 0.0187932
3.61388 32.8968 1.78172 0.567935 -0.821489 -0.0227158
4.49944 32.8767 1.52528 -0.403855 -0.906488 -0.123208
3.64245 32.9156 1.65031 0.538309 -0.83617 0.0670938
4.65861 32.7453 1.74657 -0.586832 -0.808679 0.0394986
5.56553 32.2194 1.82518 -0.474678 -0.867809 0.146931
6.34225 31.5611 1.92235 -0.686948 -0.654105 0.315812
6.76278 30.8423 1.52149 -0.711271 -0.571229 0.409623
6.26405 31.4178 1.45962 -0.760843 -0.567876 0.314061
5.59155 32.1653 1.51615 -0.459934 -0.881968 0.102925
4.72163 32.6947 1.66642 -0.585683 -0.809011 0.0497611
6.43907 26.4501 0.464796 -0.31472 -0.0206538 0.94896
5.66945 25.7625 0.254979 -0.218608 0.041182 0.974943
4.6241 25.4983 0.110276 -0.0437507 0.0583914 0.997335
3.49976 25.5961 0.155719 0.125315 0.00908412 0.992074
2.54416 25.8608 0.307553 0.235257 0.0292182 0.971061
1.6459 26.5915 0.559599 0.3577 0.0715052 0.930921
1.53817 25.7555 0.647658 0.371972 0.0342789 0.927611
1.55528 24.7297 0.668456 0.358743 0.0119607 0.933356
1.51188 23.5846 0.698062 0.351186 0.0126001 0.936221
1.50224 22.547 0.704221 0.333598 0.0202605 0.942498
1.52626 21.4774 0.694776 0.352065 -0.00226144 0.935973
1.51465 20.396 0.679385 0.33145 -0.0297414 0.943004
1.52108 19.3645 0.636759 0.308226 -0.0309879 0.950808
1.56741 18.3506 0.585085 0.304354 -0.032626 0.952
1.56518 17.3436 0.552142 0.288928 -0.0451368 0.956286
1.56194 16.2588 0.498757 0.278332 -0.0450957 0.959426
1.5428 15.1151 0.452028 0.247455 -0.0408916 0.968036
1.58135 14.0436 0.393848 0.202685 -0.042035 0.978341
1.58866 12.9366 0.357746 0.231517 -0.0204144 0.972615
1.63468 11.9055 0.325777 0.19381 -0.0338273 0.980456
1.61224 10.8937 0.288599 0.190457 -0.0412446 0.980548
1.86534 10.8104 0.241686 0.171639 -0.049881 0.983896
2.32101 11.7137 0.19562 0.158437 -0.0356412 0.986726
3.07404 12.3864 0.116676 0.0745802 -0.0305208 0.99672
4.06515 12.5163 0.0795826 -0.0345955 -0.0491612 0.998192
4.96844 12.0263 0.120626 -0.084293 -0.0289956 0.996019
5.5484 11.146 0.141385 -0.0829234 -0.0331979 0.995996
6.17775 10.2389 0.19064 -0.153144 -0.0380172 0.987472
6.39933 10.7713 0.240206 -0.192057 -0.0368899 0.98069
6.39143 11.7981 0.278765 -0.16139 -0.0372158 0.986048
6.41222 12.9966 0.321326 -0.186078 -0.0258172 0.982196
6.39482 14.0106 0.349452 -0.183774 -0.0310957 0.982472
6.39896 15.1023 0.380541 -0.195692 -0.0247346 0.980353
6.39686 16.1264 0.401134 -0.196033 -0.048462 0.979399
6.41974 17.179 0.439262 -0.216415 -0.0380569 0.975555
6.42868 18.2957 0.471823 -0.205629 -0.0323549 0.978087
6.39095 19.3747 0.490458 -0.230837 -0.0262581 0.972624
6.43446 20.4372 0.512806 -0.248851 -0.0140384 0.96844
6.45601 21.5994 0.522685 -0.269484 -0.00176599 0.963003
6.42039 22.6392 0.497554 -0.274481 0.0139219 0.961492
6.44898 23.6963 0.492254 -0.255231 0.00370744 0.966716
6.3952 24.7166 0.457632 -0.255086 0.0143916 0.966779
6.39308 25.7713 0.446364 -0.289216 0.00744264 0.957235
6.4353 26.4271 0.463044 -0.31472 -0.0206535 0.94896
5.79851 24.2924 0.327364 -0.201836 0.0128773 0.979335
4.69537 24.2647 0.156742 -0.0939944 0.0251511 0.995255
3.68175 24.2373 0.155654 0.0929574 -0.0122497 0.995595
2.58624 24.2152 0.342515 0.225215 0.0319062 0.973787
2.12426 24.2094 0.472679 0.310579 0.0151657 0.950426
2.1439 23.286 0.496506 0.302027 0.0245115 0.952984
3.24172 23.2979 0.2251 0.158764 0.0186125 0.987141
4.28825 23.3157 0.160402 -0.0120536 0.0333352 0.999372
5.41753 23.3381 0.274736 -0.147734 0.0167055 0.988886
5.90612 23.3461 0.35811 -0.217762 -0.00786315 0.97597
5.8904 22.4045 0.367923 -0.210551 0.00896267 0.977542
4.87459 22.391 0.217328 -0.107966 -0.0122454 0.994079
3.7169 22.3749 0.176092 0.0332959 -0.00573136 0.999429
2.62253 22.3637 0.36822 0.243348 -0.0126909 0.969856
2.13259 22.3587 0.499955 0.284136 -0.0218692 0.958535
2.03744 21.4283 0.523548 0.286646 0.004875 0.958024
3.06241 21.4386 0.272983 0.13851 0.0266843 0.990001
4.10497 21.4487 0.174992 -0.00304459 -0.00677409 0.999972
5.10641 21.4579 0.236902 -0.0856166 -0.00311187 0.996323
5.92822 21.4653 0.384027 -0.245742 0.000622297 0.969335
5.92988 20.53 0.384742 -0.248341 -0.0110355 0.96861
4.8079 20.5245 0.196915 -0.107337 -0.0148152 0.994112
3.80195 20.5178 0.184179 0.0612895 0.0075294 0.998092
2.68287 20.5072 0.343097 0.21103 -0.00769488 0.977449
2.0191 20.4989 0.513802 0.267062 -0.0120773 0.963604
2.07409 19.5742 0.474165 0.250778 -0.0182977 0.967872
3.11239 19.5852 0.27162 0.135049 -0.0064939 0.990818
4.16222 19.5912 0.182603 0.0116875 -0.012557 0.999853
5.18968 19.598 0.262791 -0.152897 0.0183396 0.988072
5.83121 19.5991 0.37419 -0.178667 0.00250801 0.983906
5.85827 18.6701 0.37137 -0.179016 -0.0100703 0.983795
4.83665 18.6693 0.225175 -0.123306 0.0134553 0.992277
3.79572 18.6659 0.188567 0.0478213 0.00317561 0.998851
2.76305 18.6564 0.315471 0.152868 -0.00511421 0.988233
2.23798 18.6501 0.413779 0.212487 -0.0360857 0.976497
2.24966 17.7259 0.406108 0.202792 -0.0309304 0.978733
3.27593 17.7364 0.235674 0.112838 -0.0307046 0.993139
4.27887 17.7412 0.186895 -0.0305305 0.0342964 0.998945
5.3254 17.7433 0.267148 -0.134221 -0.00409284 0.990943
5.87093 17.7431 0.347282 -0.155878 -0.0193878 0.987586
5.77988 16.8197 0.309397 -0.148364 0.00150554 0.988932
4.6713 16.8195 0.203845 -0.068589 0.0102845 0.997592
3.62411 16.8152 0.191767 0.0695566 0.016375 0.997444
2.42082 16.8059 0.345142 0.169004 -0.0373959 0.984906
2.0818 16.8026 0.407255 0.177431 -0.0331634 0.983574
2.14207 15.8835 0.360333 0.16819 -0.0529225 0.984333
3.247 15.8927 0.2042 0.118395 -0.0301474 0.992509
4.31011 15.8974 0.181713 -0.0573501 -0.0220957 0.99811
5.31824 15.8984 0.250192 -0.0859325 -0.0167214 0.996161
5.84836 15.8975 0.303584 -0.122903 -0.00949734 0.992373
5.74876 14.978 0.26994 -0.113582 -0.0421334 0.992635
4.66939 14.9785 0.183546 -0.0618993 -0.0267843 0.997723
3.52172 14.9749 0.167192 0.0545709 -0.041129 0.997662
2.51593 14.9677 0.265184 0.134907 -0.047833 0.989703
2.10883 14.9644 0.325539 0.163676 -0.0285919 0.9861
2.10724 14.0457 0.300655 0.154695 -0.047197 0.986834
3.34018 14.0553 0.161969 0.0835918 -0.0291794 0.996073
4.44172 14.0606 0.139244 -0.0340183 -0.0289044 0.999003
5.56364 14.0602 0.226034 -0.11641 -0.0430344 0.992268
5.83755 14.0596 0.260787 -0.151903 -0.042042 0.987501
5.88067 13.1436 0.239756 -0.14062 -0.00949466 0.990018
4.71045 13.1442 0.134163 -0.0562606 -0.0268587 0.998055
3.70082 13.14 0.109971 0.0480088 -0.0164345 0.998712
2.54856 13.1313 0.2032 0.116173 -0.0391578 0.992457
2.13977 13.1272 0.264146 0.150367 -0.0256788 0.988297
5.46793 12.2288 0.170049 -0.09449 -0.023805 0.995241
5.75224 12.2283 0.19958 -0.126059 -0.0261581 0.991678
2.97852 25.1479 0.234616 0.157733 0.0281717 0.98708
2.29143 25.1351 0.402799 0.283914 0.0264702 0.958484
2.16137 25.1332 0.439466 0.305246 0.00523992 0.952259
