1.23832 30.5775 1.54896 0.616222 -0.677588 0.401429
2.04337 31.3782 1.55372 0.861187 -0.461473 -0.213071
2.72298 32.2709 1.59941 0.69849 -0.684577 -0.194651
2.27739 31.7192 1.86202 0.749688 -0.660228 -0.0454497
1.47304 30.9724 1.97021 0.508426 -0.769604 0.386281
1.2431 30.6331 1.63537 0.613149 -0.690104 0.383836
0.460911 30.1334 2.1131 0.641049 -0.566343 0.517988
0.622496 30.7968 2.8833 0.574874 -0.744674 0.339089
1.56742 31.3941 2.9039 0.47045 -0.85319 0.225261
2.39934 31.9528 2.85867 0.615154 -0.771624 0.161807
3.13577 32.6694 2.81238 0.651487 -0.752761 0.0747716
4.09269 33.0227 2.80172 -0.112779 -0.971607 -0.0636381
5.22358 32.6161 2.81162 -0.339177 -0.936824 0.0852357
6.14698 32.2242 2.85378 -0.511283 -0.830297 0.196152
6.93995 31.6079 2.89075 -0.566487 -0.754774 0.330771
7.47888 30.8958 2.36006 -0.568677 -0.673829 0.471763
7.49359 30.1532 1.70394 -0.578603 -0.430417 0.692791
7.47635 29.2561 1.18314 -0.564886 -0.381996 0.731425
7.50232 28.177 0.842771 -0.564361 -0.177827 0.806148
7.48026 27.1574 0.768855 -0.423238 -0.0951286 0.901011
7.41544 26.0957 0.677153 -0.309718 -0.0314018 0.95031
7.40974 25.0232 0.661111 -0.298704 0.00208485 0.954343
7.41632 23.8729 0.683194 -0.292244 0.0189535 0.956143
7.41375 22.7747 0.694832 -0.285337 0.00871004 0.958388
7.43188 21.5277 0.709217 -0.270271 -0.000452621 0.962762
7.42361 20.4969 0.697166 -0.267979 -0.0146609 0.963312
7.42119 19.4547 0.673956 -0.262309 -0.0286914 0.964556
7.42904 18.4532 0.644159 -0.25286 -0.0319099 0.966976
7.40936 17.3148 0.594253 -0.236573 -0.0447748 0.970558
7.39809 16.3065 0.543478 -0.22915 -0.0357528 0.972706
7.40349 15.2566 0.506901 -0.208223 -0.0356372 0.977432
7.39397 14.2539 0.467901 -0.200797 -0.0362907 0.978961
7.40444 13.227 0.436224 -0.191919 -0.0332473 0.980847
7.40211 12.1351 0.398367 -0.189498 -0.0336532 0.981304
7.40286 11.1302 0.363386 -0.190593 -0.0354241 0.98103
7.40669 9.98761 0.317907 -0.181412 -0.0486288 0.982184
7.416 8.78987 0.252016 -0.175028 -0.05992 0.982738
7.42365 7.72271 0.180093 -0.190113 -0.0840259 0.978047
6.93997 8.24214 0.127544 -0.199931 -0.0798108 0.976554
6.52022 9.19775 0.112153 -0.176554 -0.0577361 0.982564
6.04595 10.0859 0.0784359 -0.138966 -0.0459602 0.989137
5.59445 10.9901 0.0562987 -0.102903 -0.0272107 0.994319
5.18646 11.9338 0.0497621 -0.0813088 -0.0296609 0.996248
4.85237 12.9837 0.0499559 -0.0795591 -0.0254098 0.996506
4.49555 13.934 0.051695 -0.0623284 -0.0294474 0.997621
3.60089 14.2744 0.0557192 0.0495001 -0.0298446 0.998328
3.06388 13.3019 0.066006 0.101471 -0.0399469 0.994032
2.66491 12.347 0.0753026 0.11881 -0.028304 0.992513
2.38485 11.3738 0.0907593 0.149141 -0.0103178 0.988762
2.12145 10.4176 0.0923372 0.156601 -0.0615584 0.985703
1.6299 9.45088 0.117318 0.184193 -0.0794517 0.979649
1.16222 8.51223 0.133117 0.209316 -0.0931408 0.973402
0.660519 7.57489 0.147263 0.213042 -0.101921 0.971713
0.61447 8.41656 0.241526 0.207909 -0.091594 0.973841
0.633198 9.41916 0.325732 0.210434 -0.0846313 0.973938
0.617292 10.4475 0.408404 0.233935 -0.0625108 0.970181
0.576841 11.4871 0.46648 0.235642 -0.0397867 0.971025
0.599744 12.5747 0.501889 0.238232 -0.0324514 0.970651
0.603284 13.7022 0.543447 0.25596 -0.0464453 0.965556
0.603632 14.768 0.601903 0.267379 -0.0565274 0.961909
0.582757 15.8177 0.669803 0.28146 -0.0581168 0.957811
0.551425 16.8957 0.746006 0.285469 -0.0562709 0.956735
0.587709 17.9407 0.791747 0.29387 -0.0441752 0.954815
0.589781 18.9699 0.837938 0.314233 -0.0452845 0.948264
0.583805 19.9995 0.899022 0.318906 -0.0603137 0.945865
0.569079 21.079 0.954762 0.339295 -0.0396345 0.939845
0.560512 22.1756 0.976421 0.353828 -0.00951808 0.935262
0.548937 23.1859 0.977662 0.36849 0.00344969 0.929625
0.56163 24.3043 0.966465 0.366218 0.00668523 0.930505
0.580805 25.4747 0.943233 0.361871 0.0172912 0.932068
0.549834 26.5902 0.913486 0.390215 0.0325122 0.919395
0.530168 27.6476 0.962987 0.521718 -0.0864366 0.847453
0.491892 28.7099 1.24867 0.607221 -0.192605 0.769267
0.499973 29.653 1.57649 0.693332 -0.469285 0.546866
0.467746 29.9878 1.94546 0.641049 -0.566343 0.517988
1.38339 29.9975 0.539576 0.769974 -0.318736 0.539215
1.44933 28.8455 0.404842 0.647786 0.0790465 0.753867
1.90801 27.7754 0.236579 0.374038 0.0763406 0.924266
2.39134 26.7325 0.192543 0.298081 0.144928 0.943474
3.31829 26.3658 0.0706852 0.0665929 0.0920359 0.992214
3.40752 25.6558 0.0754293 0.11951 0.00648504 0.992572
3.31411 24.5102 0.10081 0.178711 0.00533921 0.983887
3.41248 23.3864 0.0950606 0.200929 0.0166476 0.979402
4.26611 23.2354 0.0608741 -0.107651 0.059492 0.992407
4.91038 24.0033 0.0914693 -0.131393 0.0513486 0.99
5.32351 25.1272 0.117795 -0.190241 0.0476493 0.98058
5.653 26.0997 0.145282 -0.227067 0.032257 0.973345
6.01189 27.0804 0.202722 -0.29846 0.0843968 0.950683
6.4698 28.1655 0.278542 -0.484669 0.0136899 0.87459
6.57742 29.1364 0.442123 -0.66665 -0.148453 0.730438
6.43383 30.2703 0.468998 -0.801792 -0.16425 0.570685
6.02489 31.3304 0.485376 -0.740637 -0.496505 0.452702
5.40406 32.2091 0.573882 -0.662485 -0.728004 0.154906
4.60768 32.8643 0.525174 -0.543254 -0.814312 0.204378
3.62998 33.0289 0.602011 0.281959 -0.941391 -0.0775896
2.68547 32.59 0.579962 0.464853 -0.841603 -0.274985
1.83243 31.9681 0.56317 0.701568 -0.498283 -0.509428
1.72216 30.9864 0.556787 0.949796 -0.113567 -0.244879
1.39079 30.0251 0.541795 0.846559 -0.263838 0.462306
1.38772 30.0162 0.542332 0.846559 -0.263837 0.462307
2.80666 32.3699 1.58417 0.744309 -0.651754 -0.145675
3.54323 32.9688 1.7646 0.497114 -0.862362 0.0143459
4.49207 32.9106 1.78886 -0.587311 -0.808937 0.0262195
5.15054 32.5039 1.60046 -0.467261 -0.877467 0.102255
4.3342 33.0247 1.77421 -0.441748 -0.881597 0.0335177
3.52183 32.9454 1.60303 0.57543 -0.816749 0.0424292
2.9269 32.509 1.57596 0.666408 -0.728225 -0.111957
5.23829 32.4893 1.80002 -0.454702 -0.880296 0.135372
5.651 32.2109 1.56024 -0.609845 -0.742795 0.276307
5.34214 32.4105 1.6365 -0.454697 -0.880299 0.135367
5.82106 32.1676 1.81358 -0.562583 -0.747796 0.347627
6.61121 31.4481 1.93237 -0.676611 -0.642412 0.358723
6.46374 31.3113 1.38402 -0.725919 -0.563777 0.393951
5.83885 32.0609 1.57142 -0.579213 -0.760797 0.292747
6.31031 24.9583 0.339466 -0.235078 0.0212378 0.971744
5.99583 23.9073 0.285742 -0.218419 0.0241686 0.975556
5.44804 23.0487 0.201263 -0.160357 0.00750834 0.987003
4.64961 22.326 0.105361 -0.101158 -0.011913 0.994799
3.65398 22.1582 0.0883719 0.0755542 -0.0121358 0.996806
2.68696 22.7435 0.26234 0.253667 0.00749761 0.967263
2.34935 23.6871 0.336853 0.279888 0.020994 0.959797
2.31536 24.7604 0.320238 0.266822 0.0368045 0.963043
2.13736 25.7514 0.342636 0.304793 0.0501113 0.950692
1.51401 25.7066 0.571218 0.363842 0.030176 0.930945
1.52495 24.5697 0.591555 0.358622 0.0179109 0.933311
1.51217 23.5561 0.605641 0.348287 0.0134873 0.937291
1.50205 22.3683 0.617 0.350756 0.00527385 0.936442
1.51954 21.2589 0.606897 0.348283 -0.0148284 0.937272
1.53993 20.2153 0.575087 0.333862 -0.0270328 0.942234
1.54264 19.1232 0.534847 0.28572 -0.0129758 0.958225
1.52901 18.0658 0.505368 0.290128 -0.0254769 0.956649
1.52682 17.0174 0.46275 0.25161 -0.0181762 0.967658
1.57439 15.8027 0.398625 0.25709 -0.0359592 0.965718
1.60529 14.7384 0.334701 0.223627 -0.0297224 0.97415
1.58718 13.7278 0.290553 0.238038 -0.0272347 0.970869
1.59892 12.8023 0.275058 0.210526 -0.00318722 0.977583
2.04561 13.4813 0.202827 0.149277 -0.00524364 0.988643
2.53146 14.5351 0.16429 0.116389 -0.0301479 0.992746
3.45138 15.2321 0.09541 0.0415481 -0.0393451 0.998362
4.51014 15.1638 0.0935485 -0.0610651 -0.0282376 0.997734
5.38112 14.3618 0.134172 -0.085727 -0.0307855 0.995843
5.77918 13.4424 0.149917 -0.108476 -0.0350382 0.993481
6.05228 12.3985 0.159442 -0.127101 -0.0356318 0.99124
6.4432 12.2313 0.220253 -0.179158 -0.0333977 0.983252
6.40882 13.2463 0.243018 -0.186157 -0.0241186 0.982224
6.38443 14.3326 0.26663 -0.182834 -0.0446675 0.982129
6.37829 15.5831 0.303999 -0.177132 -0.029542 0.983744
6.41573 16.6177 0.332875 -0.194168 -0.0267114 0.980605
6.44115 17.7219 0.371449 -0.214451 -0.0358555 0.975795
6.447 18.8762 0.402443 -0.200189 -0.0129258 0.979593
6.44119 20.0099 0.421718 -0.247204 0.0040057 0.968816
6.47197 21.0707 0.439691 -0.264837 -0.00570568 0.964275
6.44883 22.1315 0.426421 -0.273323 0.0174351 0.961764
6.44129 23.3517 0.400448 -0.236304 0.0124772 0.971599
6.40242 24.4031 0.374574 -0.268177 0.00912126 0.963327
6.45053 24.8948 0.374773 -0.247839 0.0293765 0.968231
5.9247 22.5536 0.285723 -0.20948 -0.00113189 0.977812
5.8141 22.5518 0.26336 -0.197722 -0.0255677 0.979925
5.95015 21.6259 0.303014 -0.255034 -0.00405041 0.966924
4.95616 21.6067 0.133355 -0.112313 0.00482956 0.993661
3.90533 21.5834 0.0773622 0.0707393 0.0498709 0.996247
2.90092 21.5628 0.210758 0.211123 0.00813559 0.977426
2.14697 21.5498 0.398794 0.302773 -0.0170093 0.952911
2.19544 20.6456 0.377426 0.277071 -0.0149342 0.960733
3.37815 20.6638 0.145638 0.119978 0.00594928 0.992759
4.50477 20.6816 0.0979598 -0.0337245 0.0111795 0.999369
5.66435 20.6994 0.236668 -0.195538 -0.00744288 0.980668
5.8797 20.7018 0.284962 -0.218617 -0.0162066 0.975676
5.75512 19.7822 0.271115 -0.193339 0.00942467 0.981087
4.74389 19.7734 0.121485 -0.108086 0.0516995 0.992796
3.61504 19.7602 0.133773 0.102131 0.00342689 0.994765
2.56779 19.746 0.280335 0.177879 -0.00080135 0.984052
2.05242 19.7384 0.401905 0.273334 -0.0255836 0.961579
2.03168 18.833 0.392956 0.246481 -0.0469135 0.968012
3.03614 18.8469 0.191227 0.16427 -0.0182493 0.986247
4.16032 18.8599 0.0956246 0.0620212 -0.0120081 0.998003
5.17718 18.8669 0.183089 -0.128205 -0.00573266 0.991731
5.82088 18.8691 0.279207 -0.167693 -0.00363897 0.985833
5.7869 17.9591 0.254847 -0.14238 -0.0216127 0.989576
4.73899 17.9546 0.125197 -0.0993202 -0.0263076 0.994708
3.59032 17.9461 0.120455 0.0584305 0.00387244 0.998284
2.55566 17.9348 0.261698 0.178832 -0.01387 0.983782
2.11038 17.9292 0.346639 0.21675 -0.0135437 0.976133
2.20856 17.0256 0.30694 0.183566 -0.00276783 0.983003
3.22135 17.0373 0.145681 0.134721 -0.0146201 0.990776
4.35907 17.0466 0.0948863 -0.0264316 0.0130959 0.999565
5.41657 17.0509 0.186529 -0.130593 -0.00934979 0.991392
5.83748 17.0511 0.243814 -0.133838 -0.0207331 0.990786
5.85061 16.1468 0.223564 -0.139387 -0.0227197 0.989977
4.81435 16.145 0.131069 -0.0606743 -0.00722872 0.998131
3.77366 16.1394 0.0926345 0.0245934 -0.0302203 0.999241
2.77369 16.1296 0.181056 0.132371 -0.0277613 0.990811
2.05843 16.1215 0.300611 0.180079 -0.0502396 0.982368
2.11817 15.2211 0.253956 0.170022 -0.0635125 0.983391
2.46888 15.2249 0.199456 0.146483 -0.0565128 0.987598
5.40933 15.2449 0.160888 -0.0986835 -0.0226812 0.99486
5.79152 15.245 0.200193 -0.127134 -0.0398558 0.991084
2.24135 22.4559 0.377926 0.269677 -0.0124055 0.962871
2.15525 22.4547 0.402023 0.277401 -0.018505 0.960576
2.03242 22.4527 0.438521 0.298357 -0.0179979 0.954285
