1.18232 30.6826 1.65258 0.591652 -0.72105 0.360603
1.76058 31.2897 2.04603 0.533717 -0.779772 0.327264
2.42844 32.1423 1.91961 0.714436 -0.626536 -0.30621
3.35072 32.9236 1.90856 0.605015 -0.795865 -0.0235459
4.36453 33.1252 1.949 -0.412727 -0.902468 -0.0266389
5.228 32.5973 1.93958 -0.397381 -0.905278 0.1502
6.24719 32.0507 1.97553 -0.56172 -0.786324 0.229085
6.84484 31.2004 1.66244 -0.7011 -0.619259 0.353518
6.31404 31.7187 1.41459 -0.767152 -0.576035 0.282243
5.52794 32.3976 1.57249 -0.51443 -0.844219 0.148198
4.67623 32.9626 1.5079 -0.596927 -0.770141 -0.139191
3.70903 33.1776 1.49135 0.481889 -0.872169 -0.0311725
2.78086 32.5667 1.47007 0.538849 -0.815326 -0.211863
2.01327 31.9369 1.41929 0.86938 -0.392421 -0.300307
1.64077 31 1.44178 0.791469 -0.549937 0.17212
1.2064 30.6793 1.60643 0.599596 -0.70079 0.385104
0.440618 30.1815 2.02974 0.642303 -0.60112 0.475501
0.575652 30.8396 2.86027 0.579594 -0.733076 0.355906
1.54905 31.4505 2.9281 0.429486 -0.856216 0.287118
2.36879 32.0275 2.8767 0.738759 -0.670859 0.0632927
3.09969 32.755 2.84994 0.685847 -0.727084 0.031033
4.01285 33.1174 2.86545 0.0890142 -0.983717 -0.152567
5.06531 32.737 2.85257 -0.349328 -0.926751 0.116494
5.99721 32.3795 2.84674 -0.472814 -0.867422 0.154307
6.8774 31.753 2.88967 -0.592376 -0.737902 0.323406
7.53073 31.0687 2.5211 -0.559123 -0.716253 0.413961
7.51657 30.3987 1.76171 -0.55265 -0.472577 0.685218
7.52424 29.53 1.24803 -0.558373 -0.397196 0.728071
7.50745 28.5223 0.802306 -0.549823 -0.219273 0.805983
7.50145 27.4061 0.685527 -0.461746 -0.0708945 0.884175
7.45235 26.3398 0.604547 -0.310492 -0.046253 0.94945
7.45725 25.323 0.585919 -0.302707 -0.00265173 0.95308
7.44208 24.3109 0.591904 -0.296304 0.0218727 0.954843
7.4387 23.2587 0.610534 -0.289922 0.00978457 0.956994
7.44379 22.0888 0.622871 -0.279596 0.0123793 0.960027
7.45475 21.0474 0.625541 -0.270437 -0.00632837 0.962716
7.43955 20.0012 0.605269 -0.2666 -0.0200403 0.963597
7.43813 18.9361 0.57488 -0.259212 -0.032511 0.965273
7.46648 17.871 0.545855 -0.250924 -0.0388041 0.967218
7.44293 16.8249 0.490404 -0.232922 -0.0467518 0.971357
7.39575 15.7831 0.437494 -0.214588 -0.0348958 0.976063
7.44659 14.7804 0.412072 -0.203925 -0.03739 0.978272
7.42955 13.7823 0.373821 -0.195199 -0.0328641 0.980213
7.44086 12.7786 0.342883 -0.189932 -0.0337583 0.981217
7.46165 11.6587 0.307601 -0.189903 -0.0352661 0.981169
7.40963 10.4869 0.254261 -0.189612 -0.0386659 0.981097
7.40577 9.43054 0.201104 -0.17673 -0.0575658 0.982574
7.4311 8.36717 0.141317 -0.171491 -0.0642379 0.983089
7.05834 8.82427 0.1036 -0.175143 -0.0584189 0.982808
6.80119 9.88346 0.111523 -0.190194 -0.0418045 0.980856
6.59462 10.8663 0.110434 -0.190873 -0.0378236 0.980886
6.27715 11.8714 0.0922267 -0.177145 -0.0437453 0.983212
5.91992 12.8918 0.0758799 -0.1324 -0.0483136 0.990018
5.56719 13.9583 0.0567583 -0.113066 -0.0199044 0.993388
5.17124 14.9029 0.0448798 -0.0806443 -0.0282768 0.996342
4.70795 15.9203 0.0356587 -0.0740952 -0.0140458 0.997152
4.91845 16.955 0.0481429 -0.0801106 0.0163593 0.996632
5.11121 17.9476 0.067582 -0.11684 -0.0161846 0.992913
5.05061 18.9524 0.0777149 -0.143512 -0.000931526 0.989648
5.19993 20.0497 0.0831906 -0.14411 0.0240453 0.98927
5.06811 21.0225 0.0468459 -0.142191 0.0406435 0.989004
5.12398 22.0574 0.0628082 -0.128849 -0.00577524 0.991646
5.09783 23.161 0.0629939 -0.126642 0.0312745 0.991455
5.57598 24.0614 0.105496 -0.181059 0.0173528 0.983174
5.76962 25.1562 0.120307 -0.207227 0.0435644 0.977323
6.05128 26.1266 0.161849 -0.279972 0.0177588 0.959752
6.28238 27.0986 0.194902 -0.327719 0.0952866 0.939958
6.72148 28.1118 0.271324 -0.403205 0.0696058 0.912459
6.75212 29.0987 0.415295 -0.676513 -0.199595 0.705798
6.60537 30.1595 0.482908 -0.830589 -0.12259 0.543225
6.27123 31.1735 0.495192 -0.82339 -0.406101 0.396372
5.70018 32.0653 0.584132 -0.761202 -0.637169 0.120777
4.89795 32.7718 0.526062 -0.677919 -0.733047 0.0225892
4.02196 33.2394 0.536466 0.313763 -0.90341 0.170864
3.0562 32.9406 0.534637 0.350673 -0.895611 -0.273695
2.14247 32.4861 0.529149 0.472348 -0.801084 -0.366845
1.55746 31.7195 0.508877 0.920442 -0.0553997 -0.373432
1.53142 30.6199 0.559427 0.992593 -0.109368 0.0528956
1.21398 29.5246 0.439538 0.782944 -0.0624174 0.593656
1.40115 28.5365 0.361336 0.631765 0.0670706 0.772081
1.73885 27.5649 0.233273 0.391029 0.100885 0.914827
2.11294 26.6353 0.189469 0.353525 0.0973495 0.930343
2.61405 25.8271 0.111212 0.225167 0.0111347 0.974119
2.8184 24.8491 0.0940985 0.182944 0.0339298 0.982537
2.78374 23.8107 0.128466 0.240326 0.0345424 0.970078
2.83087 22.7474 0.140995 0.247465 0.000970197 0.968757
2.89862 21.6809 0.122567 0.211575 0.00975703 0.977313
3.08397 20.6596 0.0924552 0.183811 0.0190829 0.982773
3.32679 19.5146 0.0687908 0.12683 -0.0048728 0.991913
3.12475 18.519 0.0825106 0.139325 -0.014135 0.990146
3.04165 17.4979 0.0859719 0.150747 -0.0127814 0.988489
2.95088 16.4808 0.0812103 0.145632 -0.0244835 0.989033
2.78396 15.4811 0.0729677 0.125284 -0.0287442 0.991704
2.61315 14.3432 0.0640049 0.117797 -0.030114 0.992552
2.29839 13.39 0.0730953 0.160383 -0.0416667 0.986175
1.90028 12.3473 0.109097 0.21581 -0.0356551 0.975759
1.79758 11.2567 0.0997647 0.185605 -0.0363362 0.981928
1.43324 10.2504 0.118463 0.202881 -0.0657753 0.976992
1.04898 9.32091 0.140847 0.210892 -0.0809845 0.974146
0.678254 8.3248 0.132848 0.205748 -0.0924517 0.974226
0.605656 8.78561 0.19071 0.206158 -0.08643 0.974691
0.545616 9.81438 0.293546 0.214749 -0.0867226 0.972812
0.524974 10.9593 0.371573 0.238528 -0.041434 0.970251
0.567686 12.123 0.406044 0.231956 -0.0361323 0.972051
0.574668 13.2039 0.443995 0.254479 -0.0305943 0.966541
0.562946 14.3598 0.50026 0.276825 -0.0562148 0.959273
0.563622 15.3662 0.561106 0.279825 -0.0581328 0.958289
0.557844 16.5403 0.634488 0.280512 -0.0581212 0.958089
0.558828 17.711 0.699863 0.292945 -0.0444295 0.955095
0.541227 18.746 0.753188 0.31574 -0.0479308 0.947634
0.56378 19.788 0.803844 0.318814 -0.0584633 0.946012
0.555814 20.867 0.862697 0.335798 -0.0409433 0.941044
0.567251 21.9087 0.882781 0.354206 -0.00916965 0.935123
0.538067 22.9079 0.893642 0.366039 0.00244437 0.930596
0.52866 24.0244 0.892096 0.365271 0.00684487 0.930866
0.542292 25.0865 0.873857 0.36102 0.0133806 0.93246
0.559976 26.1477 0.840065 0.370038 0.0363361 0.928263
0.509847 27.1972 0.83494 0.482757 -0.0234604 0.872713
0.491569 28.2098 1.00417 0.556371 -0.188003 0.809347
0.418141 29.2068 1.26422 0.650375 -0.0958324 0.751636
0.435859 30.1111 1.94719 0.658558 -0.6015 0.451273
0.437571 30.1338 1.97354 0.642304 -0.601118 0.475503
1.51119 25.9242 0.472197 0.360786 0.040395 0.931763
1.84837 25.0411 0.36968 0.358683 0.0198341 0.933246
1.87903 23.9922 0.382871 0.322393 0.0191277 0.946259
1.89852 22.9174 0.396384 0.30013 -0.00344023 0.953892
1.93824 21.8592 0.378427 0.320419 -0.00629392 0.947255
2.12587 20.7918 0.31049 0.288103 -0.0402447 0.956753
2.34865 19.7768 0.231914 0.203271 -0.0260006 0.978602
2.2377 18.7503 0.249762 0.211598 -0.0326487 0.976808
2.12773 17.6847 0.253846 0.199658 -0.0245548 0.979338
2.03731 16.6363 0.236646 0.181735 -0.031804 0.982833
1.83669 15.5892 0.237376 0.196519 -0.0627296 0.978491
1.69601 14.5367 0.213454 0.19577 -0.0545942 0.979127
1.47586 14.531 0.263655 0.251947 -0.0543563 0.966209
1.51427 15.521 0.308914 0.237196 -0.0649004 0.969292
1.46868 16.5883 0.36942 0.281135 -0.0503018 0.958349
1.46793 17.669 0.41695 0.29423 -0.0376973 0.954991
1.42799 18.8306 0.468201 0.299403 -0.0270356 0.953744
1.4351 19.8534 0.509547 0.324449 -0.0441891 0.944871
1.48736 20.9806 0.529026 0.339635 -0.0178158 0.940382
1.46618 21.9775 0.542802 0.349948 -2.49645e-05 0.936769
1.42916 22.9776 0.555705 0.340663 -0.004504 0.940175
1.40455 23.9906 0.554936 0.347317 0.0101435 0.937693
1.41471 25.1778 0.532958 0.358312 0.0218889 0.933345
1.4908 25.8964 0.481377 0.364751 0.0397015 0.930258
6.48351 24.0472 0.311356 -0.264456 0.0187762 0.964134
6.14166 23.1125 0.240549 -0.230855 0.0294669 0.972542
6.01681 22.0816 0.219547 -0.236912 0.0269959 0.97094
6.0839 21.0518 0.249981 -0.22477 -0.0173159 0.974258
6.12882 19.9281 0.260469 -0.226265 0.0149509 0.973951
5.97396 18.8562 0.218368 -0.183258 -0.00888284 0.983017
6.03415 17.816 0.203066 -0.187518 -0.00957688 0.982214
5.90462 16.8182 0.162195 -0.142972 -0.00400569 0.989719
5.83231 15.7845 0.132958 -0.124757 -0.0120728 0.992066
6.2699 14.7859 0.17694 -0.189169 -0.0184059 0.981772
6.48489 14.9786 0.221977 -0.182925 -0.0223058 0.982846
6.51866 16.0917 0.254709 -0.197484 -0.0197894 0.979989
6.53534 17.2123 0.297687 -0.212894 -0.0297526 0.976622
6.558 18.2795 0.32635 -0.244362 -0.0238865 0.969387
6.51527 19.3785 0.344908 -0.236287 -0.0230287 0.971383
6.51528 20.4021 0.358565 -0.260207 -0.0130208 0.965465
6.55818 21.4174 0.377729 -0.26861 -0.00237516 0.963246
6.52259 22.5684 0.352153 -0.255005 0.00974053 0.966891
6.49796 23.6286 0.324227 -0.277389 0.0160717 0.960618
6.48447 23.8805 0.315182 -0.276421 0.0204572 0.960819
6.48278 23.9064 0.314145 -0.276422 0.0204574 0.960819
