1.03755 30.626 1.57254 0.598537 -0.687662 0.410943
1.48825 31.2593 2.12373 0.554426 -0.744745 0.371439
2.19362 32.1471 2.03457 0.734726 -0.655421 -0.160284
3.00463 32.795 2.02378 0.593261 -0.803265 -0.0519884
3.89385 33.2562 2.08062 -0.0664823 -0.982665 -0.163118
4.89844 32.8641 2.05387 -0.504357 -0.862006 0.0506827
5.81921 32.4262 2.07726 -0.401213 -0.906471 0.130646
6.63031 31.8389 2.13308 -0.701396 -0.666032 0.253418
6.95554 31.1885 1.56393 -0.738748 -0.56321 0.370198
6.54996 31.5763 1.29075 -0.774767 -0.54029 0.327925
5.8541 32.303 1.37236 -0.456884 -0.87062 0.169794
4.91393 32.8602 1.31155 -0.591054 -0.805955 -0.00364135
3.95496 33.3268 1.35458 -0.0419227 -0.961371 -0.197074
2.89745 32.8367 1.31112 0.419463 -0.87635 -0.236772
1.99209 32.3151 1.28397 0.657165 -0.648066 -0.384892
1.64182 31.4192 1.26218 0.951895 -0.227487 -0.205294
1.0485 30.4903 1.32946 0.616497 -0.689737 0.377852
1.07629 30.5851 1.44763 0.598537 -0.687662 0.410943
0.388179 30.0915 1.80321 0.680079 -0.577444 0.450531
0.407623 29.2442 1.17994 0.6753 -0.211099 0.703639
0.46803 28.2442 0.916855 0.594648 -0.159641 0.787547
0.479146 27.0715 0.751295 0.456305 -0.0398387 0.88814
0.504047 26.0642 0.77304 0.368974 0.0336204 0.928831
0.491586 24.9004 0.804687 0.361382 0.0123732 0.932335
0.49054 23.897 0.817619 0.370199 0.0067915 0.928928
0.468169 22.8211 0.832668 0.367877 0.00332499 0.929868
0.47943 21.7072 0.825259 0.353734 -0.0126104 0.935261
0.507252 20.6962 0.783833 0.334937 -0.0365373 0.941529
0.53793 19.663 0.716285 0.318236 -0.0550194 0.946414
0.533664 18.5026 0.655521 0.311365 -0.0404214 0.949413
0.507077 17.4341 0.614353 0.288905 -0.0485898 0.956101
0.50505 16.3962 0.554331 0.282272 -0.0573814 0.957617
0.512396 15.3043 0.485863 0.27853 -0.0598323 0.958562
0.493215 14.3019 0.429708 0.277442 -0.0558817 0.959116
0.500289 13.2902 0.377333 0.263219 -0.0367696 0.964035
0.517842 12.2541 0.336003 0.237805 -0.0316017 0.970799
0.509485 11.2218 0.299312 0.236609 -0.0395728 0.970799
0.487074 10.1101 0.240404 0.222407 -0.0715192 0.972327
0.562203 9.10671 0.142018 0.205557 -0.0887968 0.974608
0.87401 9.79502 0.129524 0.225101 -0.0685801 0.971919
1.16933 10.8406 0.123009 0.232027 -0.0450723 0.971664
1.38856 12.0315 0.119045 0.234111 -0.0367942 0.971513
1.49282 13.0578 0.120166 0.230813 -0.0136183 0.972903
1.77784 14.0569 0.093317 0.180085 -0.026225 0.983301
2.02134 15.0528 0.0862528 0.179614 -0.0301041 0.983277
2.29609 16.0601 0.0827205 0.174887 -0.0493454 0.983351
2.50538 17.2004 0.0825353 0.181767 -0.0208151 0.983121
2.5793 18.3134 0.0820069 0.171618 -0.0170444 0.985016
2.66337 19.3126 0.0789189 0.183747 -0.0104501 0.982873
2.54832 20.4103 0.108611 0.242538 0.00554614 0.970126
2.56476 21.5773 0.109752 0.261992 -0.0104921 0.965003
2.52975 22.6424 0.132107 0.266083 -0.000251384 0.963886
2.39378 23.6838 0.142072 0.293861 0.0353452 0.955186
2.34068 24.7164 0.127675 0.290356 0.0197278 0.956513
2.07471 25.6777 0.175215 0.344512 0.0416799 0.937824
1.834 26.6677 0.196811 0.364172 0.0870085 0.92725
1.47668 27.7302 0.243237 0.444175 0.0407925 0.89445
1.2586 28.7717 0.34217 0.661005 0.105019 0.742997
1.1971 29.8586 0.449315 0.77222 -0.179148 0.60565
1.4284 30.9739 0.506062 0.983151 -0.160339 -0.0572667
1.43678 32.031 0.465787 0.915384 -0.110561 -0.387102
2.11384 32.7144 0.473775 0.466879 -0.81785 -0.336371
3.08701 33.1377 0.491737 0.329075 -0.902305 -0.278488
4.20337 33.4135 0.505713 0.0525581 -0.985744 -0.116571
5.09837 32.7307 0.464433 -0.647919 -0.757737 -0.0701639
5.85933 32.0775 0.508013 -0.654251 -0.713191 0.224292
6.42666 31.178 0.487586 -0.806301 -0.419391 0.416516
6.71219 30.1855 0.436388 -0.790553 -0.096743 0.604703
6.83931 29.1726 0.364845 -0.753103 -0.215894 0.62147
6.9028 28.1489 0.250436 -0.477337 0.00352106 0.878713
6.50045 27.1267 0.168432 -0.337201 0.0853975 0.937432
6.336 26.0864 0.151802 -0.29724 0.00652283 0.95478
6.11644 25.0137 0.113215 -0.231489 0.0213279 0.972603
6.01687 23.989 0.111946 -0.226549 0.0229827 0.973726
5.81183 23.0039 0.091931 -0.195884 0.0301982 0.980162
5.99713 22.0223 0.131224 -0.2676 0.00444099 0.96352
6.00496 20.9935 0.13646 -0.264875 0.00117417 0.964282
5.70856 19.8973 0.0808526 -0.187466 0.0214313 0.982037
5.57614 18.8881 0.0711158 -0.155357 0.000520851 0.987858
5.83631 17.8103 0.0831374 -0.172372 -0.0125333 0.984952
5.83219 16.7603 0.0618741 -0.147114 -0.00362755 0.989113
6.00741 15.7265 0.0678692 -0.137317 -0.00406781 0.990519
6.36577 14.6217 0.0998021 -0.191067 -0.0374126 0.980816
6.55217 13.5748 0.105895 -0.19897 -0.025723 0.979668
6.67803 12.5826 0.101765 -0.191946 -0.032925 0.980852
6.84263 11.52 0.0971946 -0.190474 -0.0357979 0.981039
7.05713 10.41 0.0968573 -0.18832 -0.0424109 0.98119
7.34498 9.31234 0.097138 -0.174966 -0.0577352 0.98288
7.48228 9.74824 0.145314 -0.181783 -0.0494663 0.982092
7.49298 10.8101 0.197442 -0.189479 -0.0420931 0.980982
7.47056 11.818 0.22958 -0.189979 -0.034376 0.981186
7.45506 12.8364 0.262126 -0.190028 -0.0336181 0.981203
7.49361 13.8659 0.303936 -0.195334 -0.0332487 0.980173
7.49587 15.0814 0.347957 -0.204658 -0.0344674 0.978223
7.49075 16.2612 0.39227 -0.222259 -0.0339072 0.97437
7.47836 17.3894 0.440103 -0.238766 -0.050061 0.969778
7.50333 18.4411 0.489024 -0.257551 -0.0300449 0.965793
7.49607 19.4857 0.520733 -0.262834 -0.0257962 0.964496
7.4788 20.5042 0.538062 -0.266639 -0.0139632 0.963694
7.47726 21.5418 0.54843 -0.271565 -0.00202512 0.962404
7.47142 22.5996 0.538475 -0.283777 0.0126374 0.958807
7.47728 23.6675 0.527625 -0.292456 0.020759 0.956052
7.50701 24.6913 0.513848 -0.299897 0.0166804 0.953826
7.50017 25.6991 0.513906 -0.297901 -0.00808376 0.954542
7.52015 26.7262 0.54821 -0.358527 -0.0426356 0.932063
7.52478 27.8493 0.611583 -0.541533 -0.02263 0.839068
7.54877 28.9077 0.842273 -0.560703 -0.295149 0.770205
7.58203 29.8362 1.34534 -0.572727 -0.383587 0.724461
7.55934 30.7492 1.89289 -0.646614 -0.512454 0.559962
7.51268 31.333 2.82657 -0.583413 -0.730518 0.354927
6.76834 31.9703 2.95437 -0.614172 -0.759002 0.216122
5.90847 32.5367 2.91599 -0.388406 -0.915322 0.0998726
4.93837 32.8674 2.90066 -0.418071 -0.888819 0.14847
3.89625 33.1504 2.90629 -0.183708 -0.981323 -0.0570646
2.93651 32.7242 2.89512 0.691254 -0.721734 0.0348789
2.10217 31.9261 2.89205 0.600891 -0.798749 -0.0304817
1.21078 31.37 2.9463 0.49261 -0.832927 0.250338
0.46019 30.7712 2.70747 0.560557 -0.751357 0.348193
0.392437 30.1903 1.93523 0.661481 -0.599542 0.449758
1.43642 25.1965 0.432231 0.35294 0.0178158 0.935405
1.2605 24.1476 0.515144 0.360386 0.00958429 0.932753
1.28364 22.952 0.519031 0.332537 0.00710641 0.943049
1.25371 21.9051 0.536912 0.339016 -0.00211806 0.940765
1.31308 20.7319 0.498792 0.341226 -0.0190275 0.939789
1.38685 19.5616 0.424663 0.321004 -0.0486823 0.945809
1.34869 18.3537 0.38879 0.301284 -0.0286592 0.953104
1.28984 17.3185 0.371147 0.280969 -0.0386772 0.958937
1.30718 16.2296 0.311425 0.281609 -0.0468995 0.958365
1.57939 16.5381 0.244455 0.272268 -0.0338719 0.96143
1.71691 17.5389 0.254341 0.28247 -0.030902 0.958752
1.79669 18.5475 0.266112 0.272445 -0.0338803 0.961575
1.87087 19.5848 0.26567 0.312298 -0.0314922 0.949462
1.67565 20.6186 0.368048 0.330767 -0.0260346 0.943309
1.76827 21.6618 0.347526 0.337498 0.0160468 0.941189
1.70553 22.6607 0.371221 0.289656 -0.00107332 0.957071
1.45089 23.5862 0.453649 0.321873 0.0263937 0.946123
1.545 24.6603 0.40316 0.339124 0.0159617 0.940596
1.49475 25.0063 0.414605 0.34214 0.0178761 0.939479
6.60507 19.8995 0.287518 -0.260474 -0.0133328 0.965389
6.70497 19.1328 0.298511 -0.24832 -0.0232172 0.968354
6.62658 18.1587 0.254804 -0.231023 -0.0258106 0.972554
6.39198 19.1442 0.221646 -0.231725 -0.0141092 0.972593
6.51789 19.7101 0.260687 -0.252233 -0.0133791 0.96752
6.56494 19.8166 0.275547 -0.2601 -0.0166573 0.965432
