1.05801 30.6703 1.42893 0.612406 -0.700442 0.362083
1.39767 31.2864 2.15301 0.581673 -0.755201 0.257572
2.08252 32.2266 2.1172 0.653096 -0.710167 -0.262921
2.93895 32.8931 2.0428 0.537986 -0.824826 -0.173879
3.80044 33.3788 2.00876 0.132681 -0.961233 -0.215637
4.77268 33.0557 2.03559 -0.514803 -0.852767 -0.0041992
5.76321 32.5365 2.07975 -0.362335 -0.920047 0.14903
6.6642 31.9342 2.10722 -0.669346 -0.701067 0.239926
6.94289 31.3064 1.40674 -0.744517 -0.574198 0.340574
6.43518 31.8691 1.30147 -0.728786 -0.66799 0.150534
5.6342 32.5204 1.38451 -0.462609 -0.870275 0.141257
4.7813 33.0856 1.32904 -0.642388 -0.760347 -0.0302582
3.77084 33.3893 1.36758 0.277932 -0.9459 -0.164053
2.68636 32.9098 1.31006 0.422683 -0.878554 -0.222442
1.79661 32.3548 1.3014 0.662686 -0.552821 -0.50521
1.55033 31.3879 1.28956 0.949937 -0.277697 -0.131904
1.0891 30.6788 1.38419 0.642588 -0.698967 0.313889
1.32596 30.7474 0.503651 0.999382 0.00776731 -0.0342951
1.30553 31.8134 0.495776 0.954745 -0.000792816 -0.297424
1.77445 32.6764 0.482928 0.558068 -0.781685 -0.278441
2.7329 33.1839 0.486403 0.334112 -0.897212 -0.288755
3.79874 33.5272 0.516648 0.264927 -0.952237 -0.151852
4.72298 33.2569 0.476766 -0.579122 -0.79501 -0.180491
5.49249 32.5948 0.505536 -0.58815 -0.802929 -0.0723324
6.19382 31.8169 0.49626 -0.756518 -0.554594 0.336112
6.68741 30.9389 0.456268 -0.824396 -0.364101 0.433361
6.86576 29.9323 0.442515 -0.809174 -0.0611492 0.584378
7.10404 28.8159 0.374328 -0.558657 -0.216402 0.80067
7.10113 27.8167 0.260134 -0.432729 0.0614613 0.899427
6.72894 26.8854 0.170294 -0.31824 0.017956 0.947522
6.6535 25.8266 0.156369 -0.299629 -0.00199714 0.954054
6.52695 24.7919 0.131784 -0.274614 0.0344795 0.960936
6.48815 23.7165 0.142793 -0.27768 0.0206341 0.960448
6.46755 22.5508 0.157516 -0.277102 0.0184798 0.960663
6.35452 21.4561 0.145491 -0.26666 0.0126125 0.963708
6.35163 20.3943 0.135856 -0.268334 -0.014654 0.963214
6.19119 19.3869 0.0938484 -0.222835 -0.00272186 0.974852
6.3807 18.3274 0.110532 -0.215319 -0.0325983 0.975903
6.57524 17.3249 0.12772 -0.243268 -0.0371149 0.969239
6.70153 16.294 0.124589 -0.222532 -0.0302828 0.974455
6.76852 15.2321 0.112278 -0.212215 -0.0304323 0.976741
6.91518 14.1747 0.110642 -0.200366 -0.0301827 0.979256
7.03001 13.0149 0.0996234 -0.193567 -0.0312312 0.98059
7.23933 12.0498 0.107499 -0.189976 -0.0344162 0.981185
7.46864 11.7368 0.1409 -0.189958 -0.0344967 0.981186
7.44357 12.805 0.173425 -0.190124 -0.0341929 0.981164
7.48846 13.8303 0.21584 -0.195637 -0.0302655 0.980209
7.51446 14.8845 0.258471 -0.204687 -0.0369871 0.978128
7.44775 15.9083 0.281248 -0.220194 -0.0408939 0.974599
7.47222 17.0753 0.337602 -0.234955 -0.0482946 0.970806
7.48228 18.1154 0.385611 -0.254719 -0.0347412 0.966391
7.49386 19.1338 0.422325 -0.259842 -0.0315161 0.965137
7.48854 20.1735 0.447985 -0.267589 -0.0177523 0.96337
7.45753 21.327 0.454685 -0.273015 -0.00191665 0.962008
7.49687 22.3334 0.460916 -0.281793 0.00876481 0.959435
7.47719 23.3833 0.444618 -0.287908 0.0147137 0.957545
7.50565 24.4548 0.430425 -0.293553 0.021124 0.955709
7.526 25.6143 0.429715 -0.309768 -0.00641208 0.950791
7.51026 26.7354 0.464782 -0.336098 -0.0373917 0.940556
7.54017 27.7616 0.513623 -0.523954 -0.0181699 0.851552
7.5603 28.7549 0.68948 -0.57943 -0.255087 0.774074
7.59163 29.7689 1.18782 -0.607935 -0.348006 0.712513
7.57406 30.6751 1.68628 -0.656187 -0.490892 0.5731
7.56088 31.2711 2.57467 -0.596367 -0.721083 0.352684
6.89871 31.9522 2.93644 -0.613408 -0.760341 0.21357
6.02288 32.5515 2.90875 -0.407162 -0.907248 0.0939986
5.0153 32.9244 2.89344 -0.367416 -0.929862 0.0190279
4.02964 33.2383 2.87855 -0.174306 -0.956072 -0.235677
3.10337 33.0099 2.89439 0.672189 -0.739816 0.0289019
2.29227 32.2407 2.94067 0.743878 -0.66827 -0.00780299
1.37321 31.5561 2.97021 0.51891 -0.830544 0.20231
0.504046 30.9951 2.87782 0.465199 -0.851527 0.232413
0.396215 30.4075 2.02541 0.654239 -0.598024 0.462085
0.368246 29.7127 1.20365 0.651436 -0.406064 0.615269
0.445815 28.6166 0.906864 0.618677 -0.0991749 0.779299
0.47728 27.5467 0.685262 0.518252 -0.0804231 0.851438
0.497945 26.4119 0.670416 0.380832 0.0537829 0.923076
0.454664 25.2904 0.721648 0.363436 0.0187151 0.931431
0.493385 24.2894 0.721597 0.364669 0.0134609 0.93104
0.48018 23.2331 0.735948 0.369735 0.00620708 0.929117
0.474115 22.2024 0.741354 0.35919 0.000462947 0.93326
0.482671 21.1813 0.721703 0.346943 -0.0338992 0.937273
0.492076 20.1269 0.670208 0.320967 -0.053744 0.945564
0.480671 19.0159 0.611244 0.314878 -0.0502886 0.947799
0.495558 17.8688 0.550031 0.297027 -0.0442478 0.95384
0.502174 16.8493 0.494763 0.287158 -0.0538157 0.956367
0.516997 15.8138 0.428503 0.280763 -0.057757 0.958037
0.56157 14.7578 0.35122 0.274341 -0.056424 0.959974
0.491384 13.6814 0.310749 0.27072 -0.0455913 0.961578
0.528203 12.6114 0.259483 0.239592 -0.0387001 0.970102
0.514232 11.5558 0.224781 0.234083 -0.0391811 0.971427
0.498058 10.4679 0.177045 0.236866 -0.0646703 0.969388
0.866539 11.3542 0.131253 0.235756 -0.040442 0.97097
1.10865 12.3927 0.111851 0.230257 -0.0274741 0.972742
1.12417 13.5286 0.13472 0.244948 -0.0253384 0.969171
1.22881 14.6232 0.151116 0.27666 -0.0500886 0.959645
1.52867 15.5773 0.12907 0.244981 -0.0613866 0.967561
1.86406 16.6717 0.105295 0.204626 -0.0559611 0.977237
1.99944 17.6718 0.098911 0.23596 -0.0253714 0.971432
2.03831 18.729 0.110821 0.258472 -0.037557 0.965288
2.0187 19.8528 0.147014 0.291694 -0.0263829 0.95613
2.11307 20.9781 0.146608 0.287109 -0.0197439 0.957613
2.1392 22.0771 0.15058 0.289991 -0.00992371 0.956915
2.20052 23.0727 0.132832 0.282816 0.0255546 0.958834
1.97967 24.1054 0.15945 0.318088 0.0391894 0.947115
1.8276 25.1373 0.186365 0.370471 0.0290673 0.928389
1.68428 26.1897 0.204261 0.369038 0.045434 0.928265
1.38408 27.2241 0.230381 0.386704 0.104443 0.916233
1.12525 28.2103 0.339238 0.595407 -0.0827028 0.795356
1.02573 29.2858 0.401656 0.711632 0.0315708 0.701843
1.174 30.3 0.479661 0.846891 -0.242068 0.467509
1.32693 30.6224 0.502556 0.935192 -0.219247 0.085271
1.23975 23.2151 0.445568 0.336518 0.00113803 0.941676
1.26444 23.0305 0.436967 0.336518 0.00113807 0.941676
1.24117 22.294 0.449929 0.347769 0.0102253 0.937476
1.23929 22.2461 0.451269 0.354336 0.00716492 0.935075
1.28384 21.7644 0.437999 0.343563 0.0062058 0.939109
1.25185 21.7325 0.449913 0.343563 0.00620588 0.939109
0.678943 10.3862 0.127397 0.231272 -0.0607416 0.970966
0.59611 10.0086 0.122607 0.207804 -0.0689519 0.975737
0.490256 10.3893 0.173706 0.234265 -0.0658856 0.969933
7.32865 11.3521 0.100023 -0.190287 -0.035295 0.981094
7.47598 11.2902 0.126371 -0.190287 -0.035295 0.981094
7.50714 10.8667 0.116565 -0.191774 -0.0363286 0.980765
7.4143 10.855 0.0981145 -0.190148 -0.0370312 0.981057
7.51218 10.4351 0.100241 -0.188596 -0.0396422 0.981254
7.50312 10.3983 0.0969649 -0.186965 -0.0494443 0.981121
7.50371 10.4028 0.0973044 -0.187781 -0.0445433 0.981188
