1.04988 30.7974 1.42239 0.626259 -0.678185 0.384192
1.39313 31.3943 2.116 0.735916 -0.653921 0.162989
1.9402 32.2472 2.06276 0.775189 -0.520437 -0.358089
2.76754 32.9632 2.00937 0.481346 -0.855373 -0.184003
3.73773 33.4363 2.03829 0.134195 -0.979289 -0.101275
4.71022 33.1926 2.02672 -0.512912 -0.848748 -0.10579
5.62224 32.6761 1.99992 -0.41086 -0.907332 0.089127
6.56186 32.115 2.10462 -0.626407 -0.762732 0.160791
6.96023 31.5076 1.4992 -0.731186 -0.613457 0.298393
6.30701 32.1286 1.296 -0.654955 -0.734556 0.177374
5.38542 32.7609 1.25844 -0.501008 -0.864701 -0.0358346
4.59466 33.3599 1.31183 -0.461889 -0.869374 -0.108141
3.623 33.4812 1.36575 0.356357 -0.918485 -0.17145
2.6388 33.0719 1.30338 0.423313 -0.867371 -0.251714
1.74721 32.4538 1.34957 0.769924 -0.545204 -0.330745
1.45446 31.4805 1.30983 0.967613 0.101828 -0.230988
1.14556 30.8568 1.36693 0.717692 -0.585474 0.355953
1.25155 30.8837 0.482066 0.988668 -0.129604 -0.0757459
0.939462 29.8995 0.467986 0.75999 -0.191698 0.621021
0.936891 28.8189 0.377736 0.685758 0.0307416 0.72718
1.02961 27.7497 0.282464 0.474437 0.0247315 0.879942
1.36121 26.6213 0.208549 0.378172 0.0789857 0.922328
1.50787 25.5233 0.208037 0.370347 0.0329293 0.92831
1.61394 24.5039 0.193255 0.359529 0.00646919 0.933111
1.80597 23.4108 0.148115 0.298635 0.0295851 0.953909
1.79201 22.3083 0.164166 0.318861 -0.00435564 0.947791
1.70441 21.2954 0.187304 0.351009 -0.00893379 0.936329
1.66508 20.1476 0.176082 0.32456 -0.0326676 0.945301
1.57634 19.0351 0.163025 0.30878 -0.0379232 0.950375
1.43894 17.8528 0.167288 0.297526 -0.0328879 0.954147
1.29677 16.8207 0.166212 0.290561 -0.0478518 0.955659
1.12725 15.7917 0.160685 0.283808 -0.0542536 0.957345
0.972299 14.7878 0.14636 0.27797 -0.0577701 0.95885
0.783414 13.7605 0.148261 0.258556 -0.0362644 0.965315
0.728072 12.6733 0.12648 0.243743 -0.0323929 0.969299
0.478254 12.0115 0.163584 0.235271 -0.0351396 0.971294
0.523495 13.1369 0.193072 0.24578 -0.0288964 0.968889
0.507245 14.1851 0.246053 0.26922 -0.0511377 0.961718
0.515376 15.2129 0.305342 0.27808 -0.0594907 0.958714
0.506135 16.2345 0.370163 0.28369 -0.0561334 0.957271
0.512567 17.3723 0.433138 0.290284 -0.0511223 0.955574
0.529001 18.3772 0.475948 0.302955 -0.0416773 0.952087
0.533018 19.4051 0.527116 0.31786 -0.0516442 0.946727
0.512702 20.4521 0.594154 0.329394 -0.0449575 0.943048
0.491118 21.493 0.641722 0.352462 -0.0202087 0.935516
0.494891 22.5804 0.644008 0.363384 0.00233688 0.931636
0.480899 23.633 0.644251 0.370508 0.00900582 0.928776
0.520662 24.7584 0.613018 0.362096 0.010468 0.932082
0.539291 25.9641 0.578852 0.374539 0.028838 0.926757
0.511768 26.9671 0.550901 0.408772 0.0314446 0.912093
0.458225 27.9778 0.661226 0.555726 -0.126398 0.82168
0.414768 29.009 0.863194 0.677235 -0.0766594 0.728974
0.391324 29.908 1.25416 0.73379 -0.462344 0.497786
0.400106 30.558 2.03404 0.636335 -0.61443 0.466297
0.527376 31.0933 2.87495 0.498662 -0.839046 0.217574
1.36966 31.6137 2.9617 0.499819 -0.822851 0.270365
2.25047 32.3563 2.9236 0.695208 -0.707854 -0.124882
3.05947 33.0974 2.87619 0.667612 -0.744507 -0.00180642
3.99893 33.3252 2.88931 -0.102745 -0.960117 -0.247159
4.9956 33.0162 2.89333 -0.317446 -0.948148 -0.0156151
5.9383 32.6674 2.87393 -0.416431 -0.891096 0.153597
6.80304 32.1417 2.95401 -0.610962 -0.769289 0.18687
7.52425 31.4995 2.82707 -0.596001 -0.734088 0.32542
7.56183 31.0388 1.87511 -0.617475 -0.617758 0.476454
7.6079 30.2279 1.30317 -0.628342 -0.349658 0.694928
7.58282 29.2874 0.826753 -0.545179 -0.365699 0.754255
7.50944 28.3912 0.436806 -0.556643 -0.166225 0.813952
7.51931 27.387 0.392909 -0.424115 -0.00181974 0.903991
7.48767 26.2737 0.340273 -0.309897 -0.0184405 0.950576
7.49366 25.2496 0.327186 -0.297644 0.000763843 0.954675
7.51475 24.1647 0.349478 -0.300828 0.0244553 0.953365
7.48679 23.0425 0.363914 -0.28718 0.014292 0.95777
7.47133 21.9739 0.370375 -0.276802 0.00936675 0.960859
7.47634 20.8324 0.368105 -0.267664 -0.0130789 0.963424
7.49673 19.7848 0.355079 -0.264516 -0.0239278 0.964084
7.49412 18.7792 0.323563 -0.26069 -0.0313274 0.964914
7.47839 17.7136 0.281667 -0.251354 -0.0419647 0.966985
7.50458 16.6323 0.237341 -0.232517 -0.043922 0.971584
7.41542 15.487 0.173635 -0.207948 -0.0352838 0.977503
7.49259 14.5164 0.154303 -0.202383 -0.0338604 0.978719
7.21622 14.6966 0.103073 -0.206462 -0.0335052 0.977875
7.07292 15.6773 0.105618 -0.215209 -0.0240346 0.976272
7.01798 16.6751 0.124405 -0.230222 -0.0358934 0.972476
6.87108 17.7418 0.128611 -0.247654 -0.0262816 0.968492
6.80795 18.8408 0.141412 -0.255816 -0.0264396 0.96636
6.76617 19.8479 0.154236 -0.269082 -0.0190147 0.96293
6.67235 20.9585 0.14536 -0.268896 -0.0101723 0.963115
6.69891 22.0025 0.146917 -0.274573 0.0156461 0.961439
6.79583 23.0211 0.156001 -0.285913 0.0156852 0.958118
6.90496 24.0588 0.163118 -0.295209 0.029168 0.954987
6.97376 25.0709 0.164146 -0.306363 0.0117232 0.951842
6.91599 26.0891 0.150973 -0.304444 -0.0080558 0.952496
7.09198 27.1033 0.195533 -0.360498 0.0572187 0.930924
7.3911 28.0784 0.310264 -0.532853 0.00583728 0.84431
7.18093 29.0033 0.357798 -0.593383 -0.240405 0.768181
6.97791 29.9804 0.426485 -0.803636 -0.12407 0.581149
6.79534 30.9871 0.48599 -0.858651 -0.253823 0.433979
6.25842 31.9031 0.472898 -0.748335 -0.59098 0.295457
5.57585 32.7512 0.433616 -0.714378 -0.595429 -0.338689
4.81173 33.3774 0.396006 -0.599483 -0.678603 -0.394156
3.8001 33.6964 0.48276 0.245241 -0.958461 -0.135883
2.73893 33.3686 0.475822 0.354007 -0.871427 -0.333514
1.78174 32.8709 0.491813 0.553895 -0.757279 -0.346018
1.20471 31.962 0.512428 0.923683 -0.0728004 -0.376178
1.2664 30.9983 0.479964 0.980782 0.00380022 -0.130947
7.3467 14.065 0.109243 -0.199119 -0.0305221 0.979495
7.442 13.4521 0.109324 -0.191923 -0.0335801 0.980834
7.52341 13.9807 0.142451 -0.196367 -0.0336287 0.979953
7.50013 14.085 0.14144 -0.198626 -0.0335082 0.979499
