1.09653 31.2435 1.45849 0.829938 -0.552918 -0.0740568
1.34707 32.2367 1.40363 0.889971 -0.367601 -0.269854
2.03029 33.0303 1.42856 0.629784 -0.711865 -0.310709
3.05596 33.5429 1.45363 0.318045 -0.9142 -0.244395
4.03469 33.7578 1.16161 -0.111976 -0.946545 -0.294472
4.95237 33.3598 1.08022 -0.581474 -0.772439 -0.251647
5.76884 32.7247 1.41233 -0.474264 -0.879441 -0.00925538
6.6888 32.0444 1.38771 -0.685336 -0.705152 0.177916
6.83754 32.0784 1.95019 -0.654911 -0.719874 0.223216
5.95217 32.6844 1.93623 -0.407418 -0.904245 0.102741
5.06112 33.1399 1.91854 -0.582989 -0.810663 -0.0543048
4.10399 33.6183 1.91666 -0.102196 -0.985497 -0.134386
3.03164 33.4545 1.86497 0.356889 -0.923216 -0.142483
2.11418 32.8663 2.00035 0.629055 -0.729456 -0.266993
1.47592 32.0619 2.04589 0.91286 -0.27798 -0.292914
1.12273 31.2589 1.67984 0.798887 -0.578354 0.165187
1.11073 31.2431 1.62056 0.829938 -0.552918 -0.0740593
0.418932 30.8202 2.04105 0.641196 -0.651197 0.405968
0.613831 31.3376 2.89726 0.527574 -0.829825 0.181814
1.45597 31.8853 2.92846 0.65112 -0.687583 0.321359
2.19617 32.6487 2.90171 0.670665 -0.715872 -0.194258
2.97656 33.3008 2.83889 0.672219 -0.73972 -0.0185296
3.9846 33.4631 2.86804 -0.177506 -0.970547 -0.162881
5.06044 33.1438 2.87299 -0.446435 -0.893212 -0.0441428
6.00137 32.7898 2.87596 -0.382189 -0.918944 0.097335
6.9295 32.2336 2.90617 -0.598469 -0.784214 0.147375
7.57381 31.5357 2.57258 -0.623208 -0.718463 0.308672
7.62921 31.0177 1.55358 -0.761619 -0.469902 0.446239
7.63208 30.1778 1.00996 -0.740458 -0.26305 0.618487
7.55019 29.2037 0.50708 -0.623396 -0.32157 0.71272
7.1925 29.981 0.409853 -0.78699 -0.119149 0.605351
7.03118 31.0875 0.462969 -0.84906 -0.282206 0.431274
6.42095 32.0334 0.511031 -0.742497 -0.594873 0.304846
5.86121 32.9051 0.515273 -0.886316 -0.358084 -0.293633
5.329 33.7596 0.326717 -0.330626 -0.597725 -0.730206
4.71923 34.547 0.138075 -0.203423 -0.280535 -0.93804
4.45128 35.53 0.10046 -0.0790276 -0.0681049 -0.994543
4.27353 36.5397 0.075699 -0.0446845 -0.0478957 -0.997852
4.04586 37.5801 0.0506839 0.0228639 -0.0379968 -0.999016
3.83886 37.5014 0.0489404 0.0228634 -0.0379974 -0.999016
3.78525 36.4972 0.0766342 0.0396721 -0.049011 -0.996549
3.95705 35.5078 0.111575 0.0360267 -0.0271623 -0.998982
3.93893 34.4905 0.17233 0.232328 -0.219233 -0.930227
3.25004 33.882 0.492595 0.166759 -0.945426 -0.27654
2.17653 33.4803 0.534958 0.418254 -0.851977 -0.314959
1.37035 32.81 0.504705 0.724778 -0.601555 -0.3359
0.983508 31.7758 0.517624 0.972305 0.0278313 -0.232051
0.973938 30.7101 0.51786 0.939668 -0.221313 0.0284388
0.678337 29.717 0.452589 0.756844 -0.213247 0.617798
0.65142 28.673 0.37078 0.634258 -0.0579923 0.770943
0.711642 27.5645 0.267166 0.504553 0.0219119 0.863103
0.886048 26.5373 0.222413 0.376798 0.0591605 0.924349
1.08776 25.3948 0.193477 0.37184 0.0285665 0.927852
1.13931 24.3072 0.195201 0.362056 0.00853858 0.932117
1.16874 23.1128 0.198383 0.362514 0.00798807 0.931939
1.2394 21.9999 0.182584 0.352377 0.0098727 0.9358
1.20316 20.9959 0.192393 0.342918 -0.0172686 0.939185
1.12863 19.9509 0.18221 0.323413 -0.0461263 0.945083
0.926177 18.9635 0.196795 0.312595 -0.0447034 0.948834
0.860333 17.8876 0.173735 0.301892 -0.0397809 0.952477
0.668835 16.8427 0.180434 0.29057 -0.0519448 0.955441
0.589287 15.7453 0.142481 0.280653 -0.0530034 0.958345
0.483783 16.7217 0.229564 0.28874 -0.0548525 0.955835
0.524342 17.7354 0.271061 0.297008 -0.0454038 0.953794
0.508404 18.7793 0.326205 0.313412 -0.0469297 0.948453
0.496014 19.8074 0.38671 0.318501 -0.0543459 0.946363
0.537201 20.9108 0.430948 0.332633 -0.0343819 0.94233
0.531791 21.9722 0.451777 0.354679 -0.00137432 0.934938
0.536105 23.0438 0.446788 0.369573 0.00352958 0.929195
0.496607 24.0497 0.451135 0.372139 0.0165596 0.928029
0.508653 25.0789 0.429444 0.361486 0.0164441 0.932232
0.508867 26.1418 0.398894 0.373155 0.0372849 0.927019
0.513964 27.1429 0.359467 0.441123 0.00560622 0.895894
0.430799 28.1779 0.496879 0.564881 -0.103143 0.818611
0.388272 29.195 0.671686 0.700166 -0.102421 0.706595
0.412833 30.1578 1.08692 0.697624 -0.508432 0.491874
0.405951 30.7086 1.88256 0.641603 -0.65131 0.405141
3.88626 39.7827 0.0172474 -0.0180795 -0.0134147 -0.999747
3.86229 40.855 0.0129793 0.00564153 -0.0168345 -0.999801
3.83758 39.916 0.0163392 -0.0144819 0.00594826 -0.999683
7.51812 23.5292 0.189519 -0.295137 0.0173509 0.955278
7.49548 23.3585 0.185807 -0.289343 0.0175726 0.957064
7.36808 22.8483 0.155248 -0.28599 0.00802824 0.958199
7.34087 21.802 0.157895 -0.279991 0.0106828 0.959943
7.40149 20.8235 0.173325 -0.270266 -0.0135444 0.96269
7.32676 19.8357 0.135364 -0.26595 -0.0190303 0.963799
7.48155 20.5959 0.192379 -0.268033 -0.0158773 0.963278
7.5287 21.5867 0.212815 -0.27207 0.00256081 0.962274
7.44641 22.6148 0.180584 -0.28599 0.00802844 0.958199
7.45447 19.7037 0.167697 -0.264313 -0.0256319 0.964094
7.33678 19.6629 0.134192 -0.265868 -0.0245069 0.963698
7.52907 18.5127 0.150282 -0.259517 -0.0296593 0.965283
7.51826 18.4581 0.145699 -0.258344 -0.0319636 0.96552
7.51823 18.4701 0.146057 -0.259518 -0.0296596 0.965283
