1.10543 31.6265 1.55475 0.944492 -0.277926 -0.175194
1.44035 32.3478 1.89317 0.847716 -0.433365 -0.305896
2.18143 33.1603 1.91183 0.568955 -0.749273 -0.32616
3.07196 33.6531 1.75952 0.34885 -0.917215 -0.19241
4.2875 33.6262 1.81095 -0.279976 -0.948655 -0.112687
5.25779 33.1209 1.8108 -0.545336 -0.837409 -0.0348541
6.26895 32.6121 1.89868 -0.480695 -0.855485 0.179566
6.82478 32.0751 1.57653 -0.687531 -0.685687 0.238196
5.96255 32.7309 1.48845 -0.494859 -0.866844 0.0607986
5.14413 33.3306 1.2163 -0.583849 -0.753611 -0.300451
4.48193 33.9524 0.709606 -0.143945 -0.661922 -0.725785
3.55117 33.8211 1.38237 0.0586962 -0.981164 -0.169234
2.65286 33.5535 1.53448 0.393126 -0.872709 -0.289535
1.72887 32.8947 1.4943 0.719032 -0.633098 -0.28667
1.19871 32.0197 1.48804 0.931222 -0.265146 -0.249394
1.11181 31.6836 1.4986 0.946182 -0.285397 -0.150382
0.917936 31.7803 0.582339 0.976055 -0.0303601 -0.214846
1.24412 32.7455 0.506832 0.812895 -0.494232 -0.308118
1.93156 33.4688 0.56091 0.635927 -0.684065 -0.356637
2.84222 33.9325 0.570782 0.244959 -0.92333 -0.289579
3.6095 34.4313 0.223426 0.275154 -0.337475 -0.880148
3.62493 35.6077 0.177892 0.285309 0.0397201 -0.957612
3.42172 36.6144 0.117197 0.131157 -0.00956077 -0.991231
3.38347 37.7919 0.0783675 0.101322 -0.0336176 -0.994286
3.33307 38.8995 0.069802 0.0628631 -0.00713396 -0.997792
2.97123 39.8402 0.0593468 0.0827131 0.0226087 -0.996317
2.633 40.9071 0.0424877 0.0681078 -0.00458072 -0.997661
3.02241 41.832 0.0458921 0.0578647 -0.0382184 -0.997593
3.61702 42.6906 0.0437124 0.0623473 -0.0641871 -0.995988
4.32638 42.2626 0.050309 -0.0470461 -0.0335753 -0.998328
4.5933 41.2881 0.0574832 -0.0990915 -0.0198787 -0.99488
4.65404 40.2789 0.0619283 -0.0981789 0.000569604 -0.995167
4.35589 39.1916 0.0819884 -0.0989698 0.00285245 -0.995086
4.34254 38.0069 0.097502 -0.128356 -0.0449155 -0.99071
4.53236 36.9427 0.107581 -0.120379 -0.0575598 -0.991058
4.79436 35.8893 0.139243 -0.18844 -0.0376594 -0.981304
5.05825 34.8107 0.153925 -0.223962 -0.0859041 -0.970805
5.53251 33.9403 0.381172 -0.516168 -0.405769 -0.753109
5.96917 32.9047 0.540601 -0.894189 -0.347402 -0.282378
6.57648 32.0018 0.553528 -0.755565 -0.621948 0.202041
7.14079 31.0833 0.527084 -0.782605 -0.364631 0.49868
7.32303 30.0489 0.477924 -0.814807 -0.0986279 0.571281
7.55617 29.6431 0.608496 -0.648107 -0.308513 0.696259
7.62787 30.6009 1.02299 -0.795631 -0.314825 0.517549
7.57193 31.3537 1.74484 -0.715978 -0.659251 0.229705
7.52994 31.7214 2.70199 -0.650355 -0.71344 0.255423
6.74529 32.424 2.8493 -0.563705 -0.809663 0.163347
5.84263 32.928 2.84297 -0.41251 -0.902472 0.123338
4.87955 33.3212 2.80557 -0.302524 -0.951829 -0.0500107
3.78089 33.5891 2.76577 -0.0949232 -0.979539 -0.165386
2.7984 33.3081 2.8072 0.545255 -0.819442 -0.165558
1.9176 32.5405 2.87105 0.726332 -0.628411 -0.278461
1.11535 31.7443 2.88899 0.658353 -0.742614 0.0652433
0.49443 31.2446 2.50611 0.514121 -0.799147 0.309226
0.42383 30.6811 1.58477 0.70962 -0.579014 0.401475
0.42807 30.0599 0.753906 0.785991 -0.40449 0.467553
0.432415 29.0911 0.483306 0.713178 -0.0593313 0.698006
0.528987 28.3524 0.327295 0.569714 -0.0510917 0.820253
0.478921 29.4948 0.466095 0.727511 -0.101398 0.678008
0.727107 30.4485 0.54013 0.809669 -0.308642 0.499176
0.911691 31.4951 0.583164 0.972549 -0.0334202 -0.230286
0.913908 31.5601 0.583088 0.973411 -0.0260028 -0.227443
0.555624 27.0711 0.244911 0.425628 0.0476418 0.903643
0.607837 26.8459 0.232195 0.41338 0.0298357 0.909792
0.600031 26.8859 0.233762 0.425628 0.0476418 0.903643
0.685246 26.39 0.218921 0.374103 0.0616944 0.925329
0.826815 25.5128 0.201234 0.367366 0.0292657 0.929616
0.892488 24.4418 0.199853 0.361641 0.0123969 0.932235
0.868627 23.4476 0.219428 0.37362 0.00674277 0.927557
0.917213 22.3306 0.210529 0.359887 0.0112288 0.932928
0.957608 21.2691 0.197993 0.35515 -0.00809509 0.934774
0.89767 20.161 0.181791 0.325907 -0.0397759 0.944565
0.704579 19.4245 0.206545 0.318602 -0.0551566 0.946282
0.622167 18.4014 0.18124 0.306946 -0.036222 0.951037
0.543628 18.409 0.206876 0.309955 -0.0417451 0.949813
0.541252 19.6377 0.273964 0.318145 -0.0544378 0.946478
0.537532 20.7126 0.332874 0.32661 -0.041454 0.94425
0.53841 21.9663 0.359079 0.353587 -0.00880279 0.93536
0.505511 23.0112 0.368692 0.374216 0.00348159 0.927331
0.528632 23.9903 0.349504 0.367446 0.0131839 0.929945
0.588845 25.0335 0.307729 0.362258 0.0184578 0.931895
0.624925 26.0224 0.262949 0.374156 0.0400225 0.926502
0.512237 26.3415 0.292557 0.371695 0.0544794 0.926718
3.64677 40.6718 0.0935824 0.0302152 -0.0256845 -0.999121
3.63611 40.9505 0.0921412 0.00194769 0.00503341 -0.999985
3.61067 40.7218 0.0909409 0.0121118 -0.0158347 -0.999532
