1.09642 31.8658 1.68051 0.942625 -0.25427 -0.215152
1.3666 32.5274 1.56778 0.79038 -0.55189 -0.265906
1.10309 31.8913 1.67735 0.941652 -0.270902 -0.199758
1.42373 32.6016 1.58443 0.792002 -0.550894 -0.263151
1.52183 32.7269 1.61732 0.771325 -0.579308 -0.261191
1.72891 32.9161 1.77335 0.753737 -0.605529 -0.255312
1.82407 33.0571 1.72138 0.702369 -0.666347 -0.235527
2.10473 33.3622 1.62026 0.578974 -0.755932 -0.305543
2.2256 33.4424 1.65083 0.578972 -0.755936 -0.305537
2.39611 33.5766 1.6203 0.408323 -0.87408 -0.262347
3.31576 33.8831 1.59691 0.115525 -0.966062 -0.187298
4.02293 34.0611 0.942059 -0.128406 -0.909281 -0.390653
4.57451 34.1807 0.703777 -0.200867 -0.651631 -0.731457
5.13091 33.5541 1.26469 -0.452757 -0.692236 -0.534799
5.07632 33.3952 1.71792 -0.57805 -0.752965 -0.280268
4.04068 33.8161 1.71928 -0.103142 -0.964737 -0.242164
2.90863 33.7702 1.67731 0.241664 -0.922097 -0.29586
2.45118 33.5672 1.74306 0.398563 -0.883371 -0.246585
2.6494 33.347 2.7625 0.48841 -0.841009 -0.229036
3.584 33.6738 2.76936 -0.00641501 -0.983698 -0.179716
4.61412 33.4857 2.78155 -0.333623 -0.936288 -0.10982
5.54423 33.1206 2.76569 -0.412729 -0.905335 0.0848947
6.48771 32.6949 2.80806 -0.412828 -0.907357 0.0792235
7.33025 32.0448 2.83105 -0.667451 -0.729164 0.15109
7.5549 31.5651 1.91683 -0.706634 -0.678116 0.201984
7.57811 31.0264 1.0066 -0.817544 -0.364269 0.444123
7.55504 30.0294 0.587 -0.750628 -0.198564 0.626803
7.4204 30.5634 0.530792 -0.810696 -0.0958658 0.574739
7.02714 31.5995 0.579569 -0.75806 -0.532004 0.377249
6.40572 32.4541 0.597277 -0.779013 -0.610632 -0.0371545
5.94866 33.3639 0.532739 -0.826604 -0.238093 -0.509939
5.58639 34.3318 0.335414 -0.380011 -0.281857 -0.85946
5.34066 35.3654 0.157656 -0.237509 -0.0696642 -0.968884
5.04101 36.5209 0.150412 -0.228853 -0.0822455 -0.96998
4.81306 37.5485 0.126902 -0.168564 -0.0434964 -0.984728
4.83296 38.6193 0.10771 -0.179222 0.0169712 -0.983662
5.05551 39.6443 0.0906927 -0.136941 0.0341661 -0.989946
5.29006 40.6169 0.0732061 -0.112872 0.0130408 -0.993524
5.14318 41.8286 0.0729797 -0.111335 -0.0313243 -0.99325
4.73498 42.8226 0.0819485 -0.107249 -0.0454256 -0.993117
4.01613 43.4703 0.0743417 -0.023649 -0.107943 -0.992728
3.08904 43.1636 0.0660964 0.0918944 -0.0839402 -0.992225
2.50474 42.2728 0.0699094 0.0924524 -0.0600066 -0.993907
2.13897 41.2627 0.072082 0.100385 -0.0262733 -0.994595
2.23584 40.1332 0.0770226 0.120604 0.0197668 -0.992497
2.48023 39.1361 0.0736544 0.117013 0.0322403 -0.992607
2.82305 38.0724 0.0913342 0.138012 0.0189516 -0.990119
2.94809 36.9814 0.129023 0.175936 -0.00872953 -0.984344
3.13531 35.9908 0.167916 0.27691 0.0441343 -0.959882
3.37754 34.9805 0.227304 0.318636 -0.0599174 -0.945907
2.967 34.1206 0.48922 0.305845 -0.864583 -0.369001
2.04983 33.7014 0.567512 0.557059 -0.757954 -0.339398
1.31029 32.9805 0.550965 0.711121 -0.612964 -0.344356
0.820519 31.9647 0.594337 0.976703 -0.116832 -0.169714
0.792767 30.8384 0.614989 0.99325 -0.0302879 -0.11197
0.44583 30.0229 0.610783 0.731953 -0.371873 0.56035
0.441894 30.7568 1.48959 0.678876 -0.609073 0.41007
0.52513 31.3033 2.33617 0.520856 -0.809475 0.267058
1.16433 31.8814 2.84382 0.611592 -0.784609 0.0854222
1.85686 32.6257 2.80876 0.714025 -0.654472 -0.246821
2.57011 33.2958 2.76538 0.562434 -0.783586 -0.255203
5.54731 33.0412 1.64774 -0.542019 -0.840365 0.00142284
5.79927 32.8944 1.53873 -0.49909 -0.865051 -0.0509462
5.52674 33.0542 1.49551 -0.520561 -0.852704 -0.0247647
6.2644 32.626 1.59278 -0.50694 -0.845493 0.165568
6.36458 32.5893 1.72232 -0.49751 -0.855728 0.142174
6.30146 32.6251 1.71698 -0.497511 -0.855728 0.142174
3.78128 38.8176 0.181351 0.00919908 0.00694315 -0.999934
4.03095 39.8351 0.186335 -0.0125179 -0.0207881 -0.999706
4.26253 40.8405 0.170659 -0.0463088 -0.0184912 -0.998756
4.01199 41.8624 0.163878 -0.0575284 -0.0449955 -0.997329
3.34893 41.6574 0.157777 0.0524924 -0.0225866 -0.998366
3.2018 40.6571 0.164178 0.0536341 -0.00101317 -0.99856
3.42882 39.6685 0.174343 0.037602 0.0237157 -0.999011
3.75399 38.8805 0.181537 0.00919902 0.00694319 -0.999934
0.58436 24.8226 0.22177 0.365465 0.0178964 0.930653
0.585717 24.7544 0.222549 0.365465 0.0178964 0.930653
0.531973 24.0188 0.255512 0.373208 0.0149504 0.927622
0.5621 23.8525 0.24618 0.375999 0.0161159 0.92648
0.627384 22.8055 0.231204 0.370269 0.00943696 0.928877
0.570984 21.6398 0.257573 0.35371 -0.00454001 0.935344
0.641082 21.0818 0.220096 0.337644 -0.0270056 0.940886
0.647617 22.102 0.226647 0.361584 0.00783014 0.932301
0.63916 22.6921 0.227663 0.370269 0.009437 0.928877
0.578884 20.453 0.217087 0.328153 -0.052335 0.943174
0.577299 20.4152 0.215541 0.324408 -0.0491797 0.944624
0.577169 20.425 0.216134 0.328153 -0.0523348 0.943174
