0.981157 32.1581 1.59107 0.912383 -0.340364 -0.227398
1.50806 32.8453 1.93293 0.764553 -0.58941 -0.259212
2.26649 33.6872 1.89064 0.578934 -0.735901 -0.351107
3.27599 34.0605 1.76903 0.006232 -0.95955 -0.273286
4.30953 33.9335 1.80165 -0.29263 -0.921507 -0.232829
5.30588 33.4474 1.80733 -0.596041 -0.693918 -0.367708
6.20915 32.8501 1.77419 -0.426095 -0.889863 0.159879
6.59786 32.6278 1.63785 -0.535395 -0.821841 0.160504
5.82582 33.2873 1.42172 -0.697819 -0.580071 -0.399381
5.34508 34.0851 1.04968 -0.246534 -0.718011 -0.650908
4.91548 34.8716 0.525674 -0.205974 -0.151877 -0.963621
4.71309 35.9842 0.484999 -0.177829 -0.0759196 -0.981128
4.59807 37.1345 0.392158 -0.166235 -0.0871036 -0.98211
4.69551 38.1422 0.309835 -0.155657 -0.0347495 -0.98693
4.90231 39.1236 0.278028 -0.147073 0.023688 -0.988842
5.08995 40.1776 0.273023 -0.13223 0.00478632 -0.991207
5.18714 41.2039 0.253922 -0.108738 -0.0112213 -0.994007
5.09979 42.1968 0.238818 -0.124928 -0.0359638 -0.991514
4.75 43.2983 0.220194 -0.099431 -0.0753784 -0.992185
3.78925 43.7033 0.219441 0.0321609 -0.0893303 -0.995465
2.87973 43.3214 0.214661 0.0753983 -0.0819046 -0.993497
2.38279 42.2997 0.227997 0.11295 -0.0523944 -0.992218
2.17654 41.3161 0.256587 0.131631 -0.0422817 -0.99034
2.22611 40.1845 0.255685 0.130412 0.0136839 -0.991365
2.46677 39.165 0.249263 0.117177 0.0384005 -0.992368
2.88683 38.2297 0.278257 0.135084 -0.00759655 -0.990668
3.22333 37.2134 0.378162 0.129793 -0.0868459 -0.987731
3.37781 36.1973 0.443349 0.181324 0.0313302 -0.982924
3.49702 35.1586 0.481977 0.28994 -0.0221388 -0.956633
3.26522 34.304 0.788881 -0.0368558 -0.891273 -0.434847
2.51786 33.9888 1.43727 0.48317 -0.82279 -0.299272
1.74334 33.2878 1.54896 0.736943 -0.620731 -0.267597
1.05205 32.3701 1.5132 0.83482 -0.484357 -0.254023
1.01052 32.2462 1.57699 0.883987 -0.386691 -0.255524
0.719168 32.2461 0.578497 0.942252 -0.171954 -0.28739
1.19407 33.1829 0.521344 0.744422 -0.537831 -0.395695
1.89214 33.9271 0.541653 0.711563 -0.630086 -0.310917
2.52858 34.7145 0.251809 0.469504 -0.338376 -0.815517
2.44073 35.7411 0.179296 0.29484 0.0488632 -0.95427
2.28044 36.7421 0.189153 0.298021 0.00327109 -0.95403
1.94124 37.8941 0.129713 0.172514 0.0164216 -0.984464
1.48758 38.9424 0.101481 0.161356 0.0465196 -0.985798
1.25699 39.9489 0.103603 0.176059 0.0307315 -0.983865
1.20959 41.044 0.107559 0.180921 -0.0014873 -0.983494
1.23009 42.0475 0.0923537 0.15733 -0.0504623 -0.986256
1.59267 43.0347 0.0886824 0.135257 -0.0626018 -0.988831
2.03867 43.933 0.0820924 0.117127 -0.0871953 -0.989239
2.8163 44.5472 0.0785256 0.05669 -0.118648 -0.991317
3.90485 44.7512 0.079854 0.00377807 -0.138748 -0.990321
4.97662 44.4291 0.0843267 -0.0588154 -0.122291 -0.990744
5.74481 43.6982 0.079399 -0.131546 -0.0665928 -0.989071
5.99616 42.7236 0.0945654 -0.141266 -0.0494147 -0.988702
6.19312 41.6789 0.105842 -0.155622 -0.04212 -0.986918
6.12883 40.6215 0.118394 -0.183754 0.0293062 -0.982535
5.97867 39.5969 0.118744 -0.190745 0.0293279 -0.981201
5.79754 38.5658 0.116462 -0.173158 0.019857 -0.98463
5.62665 37.4696 0.157376 -0.237709 -0.0406815 -0.970484
5.67802 36.4204 0.209176 -0.268845 -0.0693749 -0.960679
5.84436 35.3607 0.233567 -0.326794 -0.0680093 -0.942645
6.04266 34.3969 0.403779 -0.627889 -0.295354 -0.720085
6.29575 33.2716 0.536363 -0.845444 -0.318266 -0.42566
6.76209 32.3582 0.589621 -0.850774 -0.511009 0.122692
7.40163 31.3916 0.578336 -0.787333 -0.511065 0.342574
7.6114 30.6163 0.532604 -0.797363 -0.171972 0.578479
7.58641 31.4009 1.00028 -0.710343 -0.42803 0.521471
7.56932 31.8012 1.93882 -0.709866 -0.679724 0.183421
7.3264 32.2597 2.82804 -0.643881 -0.752034 0.140935
6.43023 32.8666 2.82135 -0.412966 -0.909239 0.0522062
5.40314 33.3141 2.80927 -0.43223 -0.899087 0.0694277
4.36525 33.6883 2.7979 -0.20087 -0.96711 -0.155968
3.22122 33.8548 2.77816 0.0379403 -0.970649 -0.195187
2.35602 33.3825 2.82701 0.617719 -0.712006 -0.333872
1.64128 32.635 2.85661 0.701032 -0.67003 -0.24416
0.776225 31.7802 2.85876 0.642709 -0.759401 0.0915448
0.519404 31.3711 2.08985 0.503242 -0.745752 0.427694
0.409657 30.8201 1.19409 0.741478 -0.547065 0.388497
0.558331 30.8952 0.622526 0.959927 -0.222934 0.113515
0.643433 31.8929 0.587775 0.958754 -0.179339 -0.183754
0.697541 32.1249 0.580127 0.942252 -0.171955 -0.287389
3.90882 34.1432 1.31379 -0.0950263 -0.956705 -0.27511
4.90642 34.0009 1.29695 -0.161597 -0.811008 -0.562275
4.3594 34.6744 0.690292 0.0356464 -0.464762 -0.884718
4.10852 34.6715 0.680332 0.198434 -0.293426 -0.935161
4.16487 35.5518 0.553379 0.00197023 -0.0984879 -0.995136
4.01949 35.5506 0.546533 0.109259 -0.0616309 -0.992101
4.08896 36.4678 0.514516 -0.0208802 -0.10415 -0.994342
3.88838 36.466 0.501832 0.0637386 -0.120601 -0.990653
3.78542 37.3793 0.416138 0.00189032 -0.112582 -0.993641
4.06726 37.3791 0.416687 -0.0254947 -0.0994795 -0.994713
4.17483 38.29 0.371773 -0.110688 -0.0422764 -0.992956
3.44322 38.29 0.352187 0.120834 -0.0236079 -0.992392
3.02148 39.198 0.31136 0.108873 0.0296399 -0.993614
4.04085 39.1973 0.375324 -0.0422309 0.0333114 -0.998552
4.39549 39.1973 0.348276 -0.0807315 0.00774501 -0.996706
4.52226 40.1055 0.33179 -0.0700322 -0.00799384 -0.997513
3.31149 40.1059 0.345009 0.0520527 0.00010058 -0.998644
2.7411 40.1057 0.305113 0.0771139 0.0262449 -0.996677
2.70456 41.0131 0.300912 0.0602609 -0.0147798 -0.998073
3.84855 41.014 0.34887 -0.0165765 0.00424091 -0.999854
4.61416 41.014 0.31646 -0.0762235 -0.0205986 -0.996878
4.62365 41.9214 0.29764 -0.0945093 -0.026503 -0.995171
3.57089 41.9217 0.331816 0.0431051 -0.0309366 -0.998591
2.8354 41.9207 0.289874 0.076855 -0.0345783 -0.996443
3.27689 42.8283 0.28069 0.096788 -0.0522783 -0.993931
4.24735 42.8288 0.290986 -0.0142717 -0.0684943 -0.997549
4.32982 42.8288 0.289808 -0.0415074 -0.0576086 -0.997476
