1.17988 32.6615 1.63189 0.814912 -0.523082 -0.249605
1.20268 32.6681 1.69259 0.81491 -0.523084 -0.249608
1.44146 32.5369 2.79104 0.740287 -0.639301 -0.206479
0.688578 31.7985 2.76877 0.635327 -0.767002 0.0570344
0.513164 31.4702 1.88156 0.732036 -0.679535 0.030186
0.389881 30.9103 0.903033 0.871604 -0.426134 0.218136
0.52543 31.6772 0.635442 0.982333 -0.122689 -0.141075
0.796267 32.6739 0.593114 0.82575 -0.41234 -0.382457
1.50093 33.6161 0.592108 0.65973 -0.62577 -0.416001
2.24147 34.339 0.493853 0.482279 -0.630287 -0.606478
2.26479 35.3727 0.215109 0.323905 0.00283618 -0.944629
2.07337 36.4153 0.218786 0.282436 0.0467798 -0.957841
1.84302 37.4226 0.185758 0.25032 0.0246255 -0.967795
1.38473 38.3576 0.141573 0.163712 0.0636821 -0.984385
0.966166 39.3001 0.119568 0.1647 0.0365732 -0.985665
0.873843 40.3149 0.129455 0.188877 0.0126708 -0.98187
0.855835 41.4205 0.125789 0.181773 -0.0013471 -0.983334
0.915703 42.4868 0.110841 0.158402 -0.0474048 -0.986236
1.38122 43.4673 0.117266 0.143903 -0.070118 -0.987105
2.04871 44.3958 0.125308 0.114575 -0.0871228 -0.989587
3.05297 45.0028 0.113923 0.0451383 -0.141426 -0.988851
4.03145 45.3128 0.0883609 -0.0161648 -0.133666 -0.990895
4.97048 44.8957 0.109976 -0.0589973 -0.135556 -0.988992
5.79219 44.3051 0.110411 -0.108894 -0.0878472 -0.990164
6.26438 43.3969 0.110572 -0.157052 -0.0448078 -0.986573
6.51278 42.3563 0.115988 -0.173889 -0.0363288 -0.984095
6.49781 41.2393 0.139382 -0.203757 0.0114168 -0.978935
6.37183 40.164 0.140376 -0.206688 0.0234039 -0.978127
6.18761 39.0499 0.14508 -0.215798 0.0369781 -0.975738
5.93149 38.0603 0.164526 -0.213951 0.018681 -0.976666
5.81887 36.8813 0.241585 -0.298706 -0.0949198 -0.948428
5.99182 35.7421 0.260047 -0.38394 -0.0884009 -0.919117
6.12975 34.7293 0.362616 -0.493039 -0.197951 -0.841747
6.27222 33.7244 0.578184 -0.825832 -0.314102 -0.46834
6.58241 32.768 0.650661 -0.861294 -0.421467 -0.281204
7.27899 31.834 0.669747 -0.761376 -0.595311 0.253988
7.49235 31.7682 1.13821 -0.722327 -0.657509 0.213769
7.53781 32.0185 2.13165 -0.715204 -0.669329 0.201203
7.01787 32.5924 2.75899 -0.568594 -0.812168 0.124285
6.08861 33.0929 2.74796 -0.401329 -0.913887 0.0611946
5.09787 33.5393 2.72929 -0.366217 -0.922214 -0.124079
4.12081 33.8335 2.72699 -0.189717 -0.957847 -0.213382
3.04326 33.901 2.7023 0.130523 -0.957564 -0.256971
2.17826 33.3549 2.75652 0.621941 -0.743889 -0.244085
1.50897 32.6183 2.7876 0.750187 -0.620284 -0.228868
2.89139 34.2012 1.40928 0.253593 -0.916361 -0.30961
3.87592 34.171 1.5961 -0.0440454 -0.953228 -0.298468
4.9811 33.9591 1.64247 -0.204331 -0.82917 -0.517167
5.4911 33.8957 1.41537 -0.507039 -0.616417 -0.593819
5.09648 34.6044 0.766002 0.0398439 -0.499633 -0.865321
4.90072 35.6463 0.586455 -0.248014 -0.0806662 -0.965374
4.68323 36.7738 0.513686 -0.140709 -0.110144 -0.983901
4.69415 37.7789 0.41385 -0.172393 -0.0550189 -0.983302
4.99417 38.8697 0.346558 -0.167354 0.0173812 -0.985687
5.20669 39.9368 0.339309 -0.144975 0.0200405 -0.989232
5.34995 40.9591 0.325878 -0.100648 -0.015979 -0.994794
5.3916 41.9732 0.2969 -0.132629 -0.0442265 -0.990179
5.12821 43.1173 0.280716 -0.127419 -0.0554753 -0.990296
4.42545 43.8565 0.272907 -0.0275763 -0.108768 -0.99366
3.35095 43.8561 0.271056 0.0153608 -0.11506 -0.99324
2.51342 43.0995 0.281595 0.0993117 -0.0633606 -0.992987
2.04817 42.1174 0.29247 0.114335 -0.0565891 -0.991677
1.99746 41.1113 0.324383 0.117171 -0.00498307 -0.993099
2.04315 39.9538 0.312961 0.15917 0.0207568 -0.987033
2.40335 38.8459 0.318814 0.126536 0.0366729 -0.991284
2.89888 37.7939 0.379519 0.132954 -0.01545 -0.991002
3.15018 36.7781 0.493464 0.193714 -0.0524111 -0.979631
3.34321 35.7462 0.567009 0.292272 0.0463694 -0.95521
3.43488 34.6708 0.664582 0.299118 -0.421945 -0.852729
2.93839 34.2313 1.35787 0.157898 -0.948285 -0.257101
2.93342 34.2287 1.36209 0.256728 -0.922203 -0.288819
4.10851 34.7661 0.771697 0.0753781 -0.114701 -0.990536
4.43613 34.7641 0.770335 0.0374584 -0.32254 -0.945814
4.19917 35.6531 0.68486 -0.00953789 -0.0149273 -0.999843
3.97236 35.6507 0.675414 0.0589495 0.0138557 -0.998165
3.85213 36.5681 0.59634 0.0840242 -0.0661623 -0.994265
4.08835 36.5707 0.608134 -0.0885022 -0.12697 -0.98795
4.05196 37.4793 0.498289 -0.0281795 -0.0167109 -0.999463
3.60941 37.4795 0.494294 0.0625907 -0.0750791 -0.995211
3.32513 38.3922 0.425771 0.11207 -0.0281815 -0.993301
4.19441 38.3931 0.450208 -0.0882569 -0.0537228 -0.994648
4.47705 39.3031 0.420325 -0.104508 0.0255456 -0.994196
3.42552 39.3037 0.428502 0.0731987 0.0180869 -0.997153
2.95153 39.3037 0.393482 0.0836072 0.0259766 -0.99616
2.66824 40.214 0.388668 0.0960756 0.0106291 -0.995317
3.67407 40.2145 0.446382 -0.00356761 -0.0218534 -0.999755
4.58208 40.2146 0.417293 -0.100264 -0.00921 -0.994918
4.74526 41.1256 0.388897 -0.104782 -0.0179172 -0.994334
3.69871 41.1259 0.438944 -0.00098103 -0.0178957 -0.999839
2.69473 41.1248 0.38917 0.0645267 -0.015713 -0.997792
2.58429 41.1247 0.381638 0.0680464 -0.00626355 -0.997662
2.68784 42.0348 0.361259 0.0849906 -0.0322963 -0.995858
3.78939 42.0363 0.419022 -0.00107106 -0.0242819 -0.999705
4.77381 42.0359 0.367939 -0.099 -0.0280023 -0.994693
4.47478 42.9461 0.353757 -0.0764329 -0.0720767 -0.994466
3.41111 42.946 0.363112 0.0533199 -0.0807574 -0.995307
3.32012 42.9456 0.357248 0.0644425 -0.0659749 -0.995738
3.20636 42.9452 0.349914 0.0644425 -0.065975 -0.995738
