1.92625 41.1757 0.39848 0.139628 -0.0376929 -0.989486
1.93168 40.0924 0.39333 0.122803 0.00085418 -0.992428
2.07518 39.0996 0.374081 0.147317 0.0429714 -0.988122
2.51441 38.1972 0.412645 0.132692 -0.0015484 -0.991156
2.89406 37.2688 0.512266 0.141127 -0.0884896 -0.986029
3.13281 36.2806 0.605788 0.218385 -0.0163361 -0.974994
3.31018 35.1708 0.661198 0.27946 -0.046088 -0.958933
3.11199 34.4321 1.13766 0.177479 -0.926893 -0.330665
3.8189 34.3173 1.43753 -0.0554096 -0.955854 -0.276484
4.89161 34.1879 1.48328 -0.0866125 -0.822442 -0.561323
5.18655 34.4795 1.05842 -0.210768 -0.747388 -0.63007
4.94568 35.4257 0.699331 -0.184887 -0.101301 -0.974898
4.84328 36.5214 0.633091 -0.139795 -0.122792 -0.982537
4.81972 37.6307 0.499641 -0.156089 -0.0842373 -0.984144
5.09986 38.6303 0.413465 -0.163476 0.00770505 -0.986517
5.39841 39.7335 0.39294 -0.162191 0.0328642 -0.986144
5.5186 40.8473 0.399425 -0.132593 0.0138426 -0.99068
5.66204 41.8954 0.354823 -0.128218 -0.0360457 -0.991046
5.44163 43.0078 0.334969 -0.131752 -0.042313 -0.990379
4.81938 43.8717 0.334904 -0.0695327 -0.0954113 -0.992934
3.78518 44.2736 0.326241 -0.00635761 -0.148107 -0.988942
2.86266 43.7914 0.345802 0.0705334 -0.0842494 -0.993945
2.11749 42.9088 0.336112 0.118384 -0.0671821 -0.990692
1.94529 41.879 0.37643 0.118446 -0.0344373 -0.992323
1.92705 41.3058 0.393638 0.139628 -0.0376929 -0.989486
0.69482 41.3056 0.183089 0.190385 -0.00709504 -0.981646
0.704246 40.2771 0.181734 0.18891 0.00494377 -0.981982
0.761205 39.0636 0.161926 0.19046 0.0564122 -0.979857
1.19967 38.1117 0.172049 0.196421 0.0782897 -0.977389
1.62102 37.1817 0.228025 0.251967 0.0110459 -0.967673
1.90058 36.1935 0.260891 0.345896 0.0622241 -0.936207
2.07712 35.2082 0.261633 0.345693 0.0241777 -0.938036
1.98485 34.2708 0.563252 0.648808 -0.644777 -0.404022
1.20378 33.4197 0.613081 0.697342 -0.607111 -0.38096
0.639369 32.5814 0.68739 0.849176 -0.390844 -0.332345
0.404656 31.6086 0.710302 0.991743 -0.0813613 -0.0881772
0.411538 31.3653 1.30936 0.904163 -0.400725 0.142974
0.578267 31.7262 2.27273 0.705954 -0.6997 0.10977
1.18677 32.3806 2.72543 0.757528 -0.639834 -0.129472
1.87872 33.1964 2.70644 0.714742 -0.63964 -0.282851
2.69244 33.9255 2.62526 0.40217 -0.887361 -0.225498
3.69487 34.004 2.66864 -0.139016 -0.962349 -0.23025
4.70998 33.791 2.67838 -0.264003 -0.941998 -0.206041
5.75316 33.3268 2.64473 -0.437524 -0.896127 0.0743581
6.66528 32.8816 2.70724 -0.468352 -0.879832 0.0806455
7.45988 32.3019 2.58127 -0.675496 -0.72344 0.142615
7.48179 32.0272 1.49367 -0.693458 -0.694537 0.191661
7.24608 32.0965 0.73356 -0.756618 -0.624125 0.182513
6.61963 33.0165 0.681916 -0.906542 -0.289778 -0.306936
6.36288 34.072 0.584984 -0.814923 -0.166219 -0.555222
6.2206 35.0544 0.357336 -0.501618 -0.16209 -0.849768
6.10363 36.0509 0.311087 -0.410587 -0.0305732 -0.910559
5.99829 37.0873 0.2626 -0.33912 -0.0532411 -0.938614
6.25373 38.1476 0.182689 -0.215748 0.034185 -0.975851
6.54712 39.2348 0.16155 -0.212314 0.0333528 -0.976572
6.68007 40.271 0.165947 -0.218611 0.0314554 -0.975289
6.81819 41.2924 0.155159 -0.210098 0.0135406 -0.977586
6.92219 42.4271 0.129229 -0.179354 -0.0234518 -0.983503
6.62271 43.4467 0.130903 -0.172109 -0.0626206 -0.983086
6.10829 44.3593 0.152166 -0.172916 -0.0766885 -0.981947
5.34669 45.0042 0.141421 -0.0872394 -0.166938 -0.981935
4.41211 45.5374 0.125582 -0.0470987 -0.139475 -0.988908
3.44893 45.5194 0.133693 0.0413273 -0.164178 -0.985565
2.53886 45.079 0.15118 0.0598422 -0.191021 -0.97976
1.70221 44.4815 0.154259 0.169443 -0.139504 -0.975617
1.11072 43.6674 0.147358 0.164486 -0.0833904 -0.982848
0.740042 42.692 0.157751 0.155104 -0.0490494 -0.986672
0.696865 41.6442 0.178265 0.184948 -0.0122553 -0.982665
0.695103 41.3301 0.182766 0.187205 -0.0151234 -0.982204
2.69795 41.424 0.467835 0.0679334 -0.0267366 -0.997332
3.7309 41.4264 0.519412 0.0265068 -0.0139093 -0.999552
4.77574 41.4263 0.466474 -0.0729699 -0.0257362 -0.997002
4.88063 41.4262 0.456998 -0.112215 -0.0237504 -0.9934
4.98626 42.3529 0.422716 -0.124885 -0.0455484 -0.991125
3.92579 42.3537 0.491643 -0.0143006 -0.0374091 -0.999198
2.88096 42.3516 0.445571 0.0622369 -0.0490119 -0.996857
2.73551 42.3512 0.436508 0.0788024 -0.0547609 -0.995385
3.27059 43.2791 0.414615 0.068829 -0.0759877 -0.99473
4.38029 43.2811 0.425393 -0.0604226 -0.10261 -0.992885
4.6836 40.4977 0.491631 -0.0929807 -0.0157417 -0.995543
3.56486 40.4972 0.53636 0.0175262 -0.018163 -0.999681
2.7444 40.4955 0.487946 0.0878646 -0.0093396 -0.996089
2.68402 39.5671 0.464047 0.102498 0.0193285 -0.994545
3.70151 39.569 0.539027 0.0273645 -0.0120062 -0.999553
4.6744 39.5697 0.488568 -0.100158 0.0270399 -0.994604
4.40019 38.6418 0.511657 -0.0885109 -0.044778 -0.995068
3.36102 38.6394 0.507551 0.10987 -0.0312181 -0.993456
3.0223 38.6385 0.475774 0.122795 0.0145848 -0.992325
3.56142 37.7111 0.563875 0.120377 -0.0727592 -0.990058
4.09819 37.7132 0.579793 -0.0891154 -0.0268857 -0.995658
4.10016 36.7885 0.677206 -0.0636897 -0.143298 -0.987628
3.74957 36.7845 0.659434 0.0618476 -0.120268 -0.990813
3.91164 35.8595 0.785479 0.0841263 -0.00502104 -0.996442
4.19251 35.8619 0.793982 -0.0779783 -0.0221156 -0.99671
4.04824 34.9582 0.850008 0.198845 -0.140931 -0.969845
4.19018 34.9586 0.857891 -0.0786 -0.157019 -0.984463
4.36964 34.9556 0.844041 -0.0786005 -0.15702 -0.984463
