0.843659 32.4782 1.60552 0.799851 -0.536558 -0.266632
1.50318 33.2387 1.89443 0.746991 -0.610408 -0.26345
2.19566 33.9641 1.85104 0.583396 -0.744224 -0.325236
3.10683 34.3326 1.75436 0.0481689 -0.990175 -0.131276
4.11428 34.2611 1.79514 -0.0956321 -0.941524 -0.32309
5.23528 34.0311 1.85703 -0.221117 -0.808892 -0.544067
5.97434 33.401 1.81016 -0.791972 -0.525454 -0.310932
6.70408 32.826 1.57978 -0.506708 -0.848929 0.150223
6.14235 33.6066 1.32649 -0.722094 -0.414079 -0.55325
5.76553 34.5371 0.965134 -0.466037 -0.615469 -0.635616
5.53555 35.5818 0.651075 -0.253377 -0.164925 -0.953205
5.46082 36.7103 0.593826 -0.242355 -0.105918 -0.963186
5.60356 37.8144 0.436538 -0.189185 -0.0932926 -0.9775
5.91948 38.7751 0.363023 -0.183844 0.022446 -0.982699
6.17148 39.8116 0.34887 -0.192128 0.0361488 -0.980676
6.32597 40.9094 0.349054 -0.215317 0.0236452 -0.976258
6.41332 42.0152 0.321378 -0.172571 -0.0231342 -0.984679
6.24186 43.0776 0.303189 -0.153052 -0.0531925 -0.986758
5.7415 43.9417 0.319316 -0.126817 -0.0886606 -0.987956
4.79823 44.6879 0.32148 -0.0577612 -0.14547 -0.987667
3.75813 45.0284 0.30565 0.00164079 -0.144406 -0.989517
2.69322 44.573 0.333223 0.0551058 -0.147276 -0.987412
1.91307 43.8587 0.331362 0.126646 -0.0876587 -0.987976
1.57518 42.8781 0.360128 0.135653 -0.061034 -0.988875
1.56456 41.8109 0.414366 0.15845 -0.0488942 -0.986156
1.56002 40.724 0.432672 0.166389 0.00480086 -0.98587
1.5554 39.69 0.410684 0.159007 0.0411603 -0.986419
1.62028 38.5723 0.37118 0.174586 0.0424627 -0.983688
1.99158 37.5994 0.431488 0.216147 -0.0395673 -0.975449
2.31646 36.5328 0.532252 0.265454 0.0180018 -0.963956
2.6084 35.439 0.56018 0.305303 0.0179827 -0.951119
2.5711 34.5177 0.956915 0.291609 -0.786525 -0.532333
1.94109 33.8981 1.4859 0.680405 -0.673394 -0.289119
1.24502 33.1388 1.42591 0.744015 -0.583161 -0.325444
0.86442 32.5862 1.47311 0.810136 -0.51233 -0.28457
0.558868 32.716 0.526963 0.846898 -0.391986 -0.35932
1.23902 33.6873 0.509222 0.632265 -0.640934 -0.435253
1.79826 34.5442 0.404873 0.504536 -0.578142 -0.595231
1.59932 35.5329 0.218357 0.342835 0.0789971 -0.936068
1.35602 36.5392 0.200545 0.341762 0.0919334 -0.935279
0.923312 37.6616 0.159151 0.242563 0.0864286 -0.966246
0.576254 38.6529 0.176483 0.208755 0.0967019 -0.973175
0.576615 39.724 0.235935 0.18864 0.0241616 -0.981749
0.579586 40.8865 0.246045 0.193698 0.00013083 -0.981056
0.580091 42.0376 0.239504 0.182319 -0.00695401 -0.983215
0.602473 43.1091 0.197914 0.164582 -0.0861272 -0.982369
0.895222 44.1266 0.138937 0.196658 -0.110754 -0.974197
1.52635 44.9693 0.134088 0.179746 -0.15294 -0.971732
2.47633 45.5786 0.142971 0.0993968 -0.20016 -0.974418
3.39512 45.9966 0.129825 0.078494 -0.199201 -0.97681
4.53917 46.0035 0.129723 -0.0290647 -0.191586 -0.981045
5.41424 45.4739 0.137066 -0.112263 -0.173662 -0.978361
6.25929 44.8762 0.130888 -0.152805 -0.166878 -0.974058
6.87763 43.9698 0.127523 -0.200105 -0.10519 -0.974111
7.3205 43.0099 0.12026 -0.170184 -0.0590043 -0.983599
7.37882 41.91 0.127764 -0.210545 0.00431007 -0.977475
7.25852 40.8315 0.13392 -0.226932 0.0275676 -0.97352
7.13243 39.7325 0.131438 -0.229386 0.0322575 -0.9728
6.88897 38.7022 0.146604 -0.237182 0.0536146 -0.969985
6.58211 37.7374 0.176981 -0.273252 0.000537944 -0.961942
6.38778 36.748 0.25514 -0.425059 -0.0419903 -0.903293
6.47211 35.6992 0.271215 -0.430354 -0.0558883 -0.900928
6.56873 34.6535 0.381146 -0.597568 -0.25813 -0.757149
6.67519 33.5981 0.524041 -0.861467 -0.0809559 -0.486727
6.98971 32.5833 0.589734 -0.792277 -0.599181 -0.0156437
7.5494 31.8767 0.751538 -0.784737 -0.571303 0.240419
7.57581 32.1226 1.76213 -0.69508 -0.696988 0.176268
7.47251 32.4542 2.76375 -0.628067 -0.766695 0.115256
6.62669 32.9923 2.82126 -0.450445 -0.889174 0.0804346
5.66436 33.4439 2.81338 -0.460257 -0.88534 0.00455964
4.73018 33.8497 2.77973 -0.294561 -0.929505 -0.221935
3.6558 34.0694 2.78846 -0.172595 -0.953795 -0.245938
2.69414 33.975 2.76287 0.419303 -0.855831 -0.302883
1.86857 33.2418 2.83895 0.685137 -0.671843 -0.281442
1.17136 32.46 2.87033 0.757442 -0.623237 -0.194571
0.491077 31.8061 2.59372 0.615671 -0.786517 0.0483678
0.369587 31.5353 1.63125 0.883137 -0.467223 0.0420946
0.266132 31.0937 0.747095 0.981959 -0.0904369 0.166067
0.342283 31.9316 0.589032 0.963708 -0.181464 -0.126505
0.488145 32.5497 0.541634 0.847079 -0.390494 -0.36051
3.22768 35.0804 0.773257 0.305567 -0.222469 -0.925817
4.32696 35.122 0.939827 -0.124286 -0.18049 -0.975693
5.03934 35.0869 0.860444 -0.244649 -0.247232 -0.937562
5.18658 34.3463 1.39192 -0.0965781 -0.849192 -0.519178
5.39209 34.3268 1.37732 -0.117008 -0.848092 -0.516768
5.00356 36.0241 0.759819 -0.25748 -0.0798289 -0.96298
3.88681 36.0414 0.881029 0.154097 -0.0954133 -0.983438
2.9929 36.0101 0.706161 0.279589 0.0185003 -0.959941
2.80766 36.9605 0.637438 0.1878 -0.100976 -0.977003
3.83768 36.9757 0.750934 0.0313603 -0.120235 -0.99225
4.95629 36.9712 0.661214 -0.192004 -0.154684 -0.969127
5.1075 37.9113 0.521084 -0.175732 -0.0848598 -0.980774
4.02596 37.9144 0.672966 -0.0253038 -0.0356482 -0.999044
2.94058 37.9082 0.574867 0.096174 -0.0500333 -0.994106
2.45988 37.9066 0.509449 0.167419 -0.0472646 -0.984752
2.10487 38.8511 0.459566 0.132108 0.0273435 -0.990858
3.13634 38.8522 0.583147 0.116724 0.0192453 -0.992978
4.27301 38.8535 0.611674 -0.0991194 0.0215715 -0.994842
5.39018 38.8535 0.457831 -0.159409 0.0280125 -0.986815
5.53788 39.7951 0.466056 -0.172681 0.0314821 -0.984475
4.53601 39.7949 0.595677 -0.0725838 0.00515757 -0.997349
3.51975 39.7934 0.622261 0.0207241 -0.0114009 -0.99972
2.44438 39.7927 0.53518 0.106432 0.0196811 -0.994125
2.11929 39.7926 0.496943 0.124361 0.0387328 -0.991481
2.09968 40.7334 0.511756 0.139903 0.0229981 -0.989898
3.23061 40.7356 0.602338 0.0366438 -0.0101367 -0.999277
4.30171 40.737 0.604406 -0.0380919 -0.0286113 -0.998865
5.33951 40.7365 0.506096 -0.110488 0.00541909 -0.993863
5.6665 40.7363 0.467474 -0.15477 0.0256796 -0.987617
5.81381 41.6762 0.429478 -0.160709 -0.0165032 -0.986864
4.64407 41.6777 0.560996 -0.095951 -0.0187999 -0.995209
3.55871 41.6777 0.600093 0.0311195 -0.0197364 -0.999321
2.48467 41.6747 0.530268 0.0921741 -0.0201789 -0.995538
2.08015 41.6735 0.490752 0.102219 -0.022065 -0.994517
2.07252 42.6106 0.439946 0.116856 -0.0546108 -0.991646
3.12786 42.617 0.540965 0.0794722 -0.0666864 -0.994604
4.23166 42.6195 0.563955 -0.0645446 -0.0218631 -0.997675
5.35705 42.616 0.453747 -0.118901 -0.045398 -0.991868
5.83442 42.6141 0.387023 -0.141132 -0.0459837 -0.988922
5.28905 43.5537 0.401209 -0.0929719 -0.0870257 -0.991858
4.27011 43.5579 0.487647 -0.0459738 -0.0851273 -0.995309
3.15544 43.5547 0.471166 0.0499699 -0.0815372 -0.995417
2.51782 43.5504 0.425325 0.0915906 -0.0676923 -0.993493
2.48603 43.5502 0.422411 0.0915906 -0.0676924 -0.993493
