0.817524 32.6972 1.45874 0.798239 -0.526269 -0.29301
1.31934 33.1619 1.86981 0.739892 -0.618979 -0.263487
1.97956 33.9137 1.7916 0.626627 -0.731595 -0.268528
2.8346 34.4057 1.71801 0.293473 -0.926111 -0.234383
3.87876 34.4277 1.78714 -0.150796 -0.926113 -0.345237
4.85863 34.2483 1.86819 -0.0946555 -0.905799 -0.412999
5.80597 33.7741 1.89411 -0.553725 -0.663878 -0.489899
6.54025 33.0929 1.81721 -0.621623 -0.757504 -0.167805
6.38062 33.404 1.40629 -0.752357 -0.582327 -0.307985
6.07321 34.3598 1.12665 -0.659574 -0.425349 -0.61222
5.81215 35.3342 0.724536 -0.374801 -0.201663 -0.902399
5.74851 36.4559 0.634869 -0.315238 -0.0886197 -0.944832
5.87429 37.5952 0.49022 -0.272807 -0.0588457 -0.960223
6.16505 38.5981 0.397258 -0.197536 0.0292195 -0.979856
6.42427 39.6661 0.379185 -0.205272 0.0384781 -0.977903
6.47385 40.6794 0.397607 -0.217159 0.0111591 -0.976072
6.45534 41.6893 0.401943 -0.19304 -0.0176883 -0.981011
6.44482 42.8137 0.371342 -0.165013 -0.0474981 -0.985143
6.16091 43.9006 0.355417 -0.163919 -0.0839541 -0.982744
5.53296 44.6847 0.354802 -0.0959597 -0.145684 -0.984666
4.62718 45.1958 0.349722 -0.0582024 -0.144929 -0.987667
3.65719 45.3565 0.340032 0.0307723 -0.146981 -0.988647
2.72533 44.9639 0.358149 0.0600854 -0.146479 -0.987333
1.7524 44.1858 0.363521 0.147222 -0.117055 -0.98212
1.57091 43.0468 0.435978 0.134136 -0.0685163 -0.988569
1.57194 41.9556 0.495759 0.134 -0.0299379 -0.990529
1.56848 40.8496 0.520876 0.1637 -0.037842 -0.985784
1.54878 39.8357 0.503407 0.157693 0.0263029 -0.987138
1.55941 38.827 0.462304 0.172153 0.0436202 -0.984101
1.6133 37.7903 0.431192 0.234798 0.0317037 -0.971527
1.91012 36.8318 0.521539 0.28617 -0.00127204 -0.958178
2.20138 35.8459 0.576016 0.304925 0.063586 -0.950155
2.44848 34.7653 0.715875 0.355511 -0.470589 -0.710787
1.92197 34.0698 1.313 0.627017 -0.709878 -0.320818
1.22494 33.2715 1.40703 0.720296 -0.608588 -0.332857
0.8385 32.7366 1.44515 0.798239 -0.526269 -0.29301
0.488654 32.8306 0.529911 0.912509 -0.369397 -0.175709
0.238386 31.8547 0.572912 0.988384 -0.116449 -0.0976592
0.207466 31.4087 1.02342 0.982892 -0.173214 -0.0626178
0.422784 31.8167 1.9562 0.798005 -0.567201 -0.203643
0.721827 32.0877 2.84351 0.6404 -0.767032 -0.0393676
1.52199 32.9917 2.82706 0.704281 -0.651731 -0.281487
2.30305 33.8195 2.77641 0.643067 -0.693927 -0.323929
3.318 34.2016 2.73659 0.0818109 -0.972339 -0.212911
4.32398 34.0231 2.80264 -0.197487 -0.939558 -0.279686
5.3195 33.7099 2.80228 -0.42868 -0.900647 -0.0711915
6.30987 33.2206 2.78797 -0.402476 -0.914204 0.0466854
7.21203 32.7094 2.82168 -0.570317 -0.820234 -0.0336025
7.57359 32.33 2.10142 -0.706428 -0.688447 0.164318
7.56742 32.1017 1.11392 -0.709578 -0.688963 0.144814
7.19346 32.4884 0.60259 -0.829603 -0.545508 0.0725234
6.84886 33.4717 0.531414 -0.873521 -0.127933 -0.469674
6.79128 34.4652 0.41562 -0.701676 -0.0544057 -0.710174
6.71841 35.5249 0.287617 -0.466751 -0.118379 -0.87643
6.64672 36.669 0.243219 -0.440756 -0.0517697 -0.896049
6.90658 37.847 0.173735 -0.286672 0.0541248 -0.956099
7.28598 38.9254 0.146848 -0.237887 0.0476314 -0.970124
7.43749 39.9581 0.153614 -0.232339 0.0306963 -0.972146
7.43053 41.1339 0.188213 -0.227546 0.0240432 -0.973471
7.43076 42.2329 0.205325 -0.193179 -0.00386393 -0.981061
7.41131 43.3058 0.164022 -0.194792 -0.0727794 -0.978114
7.0503 44.3099 0.145589 -0.213732 -0.113722 -0.970195
6.42326 45.2398 0.142468 -0.167504 -0.178327 -0.969255
5.57916 45.7925 0.143132 -0.119298 -0.201576 -0.972181
4.66354 46.2821 0.146213 -0.0938757 -0.19843 -0.975609
3.62221 46.3998 0.146373 0.00668613 -0.203156 -0.979124
2.63158 46.0391 0.141645 0.110549 -0.22591 -0.967855
1.63852 45.4662 0.147116 0.126448 -0.201166 -0.971361
0.826859 44.6162 0.146645 0.190435 -0.138883 -0.971826
0.557693 43.6202 0.223195 0.179531 -0.118712 -0.976563
0.596276 42.6234 0.314409 0.164539 -0.0589462 -0.98457
0.575284 41.4485 0.332109 0.1934 0.00128804 -0.981119
0.583435 40.4413 0.334285 0.198363 0.00407321 -0.980116
0.56496 39.4034 0.31113 0.172868 0.0274041 -0.984564
0.583882 38.2554 0.227946 0.197941 0.0965794 -0.975444
0.728032 37.2384 0.157945 0.262747 0.0797914 -0.961546
1.14386 36.226 0.210784 0.345789 0.0586584 -0.936477
1.39734 35.2598 0.23854 0.376581 0.0914805 -0.921856
1.54744 34.3011 0.423352 0.595866 -0.593982 -0.534808
0.879568 33.4715 0.504803 0.69087 -0.527287 -0.487943
0.513004 32.8917 0.527887 0.847128 -0.428941 -0.281667
2.9694 35.2296 0.809996 0.237837 -0.1638 -0.957394
4.07431 35.3103 1.08594 0.0463572 -0.216502 -0.975181
5.1023 35.2589 0.949548 -0.237938 -0.204736 -0.949457
5.1553 35.2536 0.936695 -0.249526 -0.196266 -0.94827
4.95751 34.4859 1.43743 -0.0399809 -0.836395 -0.546668
5.62688 34.4104 1.37335 -0.330113 -0.699972 -0.633296
5.26997 36.1982 0.790277 -0.234308 -0.0748051 -0.96928
4.22494 36.227 0.965985 -0.104773 -0.134139 -0.985408
3.15311 36.2014 0.871624 0.160209 -0.104615 -0.981524
2.70828 36.1776 0.740646 0.271987 0.0090967 -0.962258
2.31692 37.1406 0.640493 0.283491 -0.00979529 -0.958925
3.40865 37.1595 0.799342 0.0904379 -0.159459 -0.983053
4.49268 37.1662 0.802061 -0.110797 -0.139508 -0.984003
5.2193 37.1577 0.684273 -0.169689 -0.130433 -0.976828
5.33714 38.1094 0.563957 -0.196413 -0.0714337 -0.977916
4.22905 38.1122 0.735014 -0.0942577 -0.0370797 -0.994857
3.2285 38.1065 0.68547 0.12715 -0.025698 -0.991551
2.32261 38.102 0.577294 0.152411 -0.0183554 -0.988147
2.10482 39.0576 0.555979 0.141144 0.0463412 -0.988904
3.19586 39.059 0.676752 0.0839076 0.0175178 -0.99632
4.23585 39.0618 0.709413 -0.0842812 0.00603056 -0.996424
5.30239 39.062 0.566995 -0.158769 0.0314368 -0.986815
5.70535 39.0621 0.500356 -0.184773 0.033992 -0.982193
5.82202 40.0143 0.507714 -0.168891 0.0177962 -0.985474
4.83047 40.0143 0.654713 -0.0939839 -0.00444604 -0.995564
3.79947 40.0142 0.713936 0.0283968 -0.0023062 -0.999594
2.77645 40.0116 0.664411 0.0801269 0.0308921 -0.996306
2.15305 40.0105 0.59615 0.128738 0.0418005 -0.990797
2.11442 40.9621 0.597606 0.131034 -0.0396574 -0.990584
3.1418 40.9647 0.681867 0.0657357 -0.0141212 -0.997737
4.20852 40.9668 0.689951 -0.0385165 -0.0166618 -0.999119
5.25782 40.9666 0.598793 -0.111519 -0.00925843 -0.993719
5.9642 40.9666 0.500303 -0.15942 -0.0226658 -0.986951
5.91537 41.9169 0.490171 -0.144445 -0.0419121 -0.988625
4.80385 41.9193 0.628843 -0.101241 -0.0186162 -0.994688
3.71616 41.919 0.68246 0.00269127 -0.0403983 -0.99918
2.57725 41.9152 0.614781 0.0953024 -0.0391614 -0.994678
2.24525 41.914 0.582968 0.105701 -0.0511858 -0.99308
2.10462 42.8624 0.514947 0.115129 -0.0554567 -0.991801
3.17916 42.8701 0.614983 0.0576881 -0.0848612 -0.994721
4.28316 42.8728 0.633266 -0.0754768 -0.0777006 -0.994116
5.35051 42.8693 0.529008 -0.127271 -0.0362033 -0.991207
5.92116 42.866 0.44991 -0.144062 -0.0365095 -0.988895
5.60512 43.8166 0.442718 -0.114949 -0.0644045 -0.991281
4.54342 43.8219 0.534453 -0.0436309 -0.11389 -0.992535
3.52988 43.8211 0.547817 0.0578807 -0.10925 -0.992328
2.46072 43.8139 0.486558 0.115643 -0.0715075 -0.990714
2.30798 43.8119 0.468302 0.119295 -0.0750206 -0.990021
3.55743 44.7645 0.42883 0.0226958 -0.155369 -0.987596
4.0817 44.7653 0.428091 -0.024462 -0.122752 -0.992136
4.22704 44.7651 0.424531 -0.0244609 -0.122752 -0.992136
