0.82075 32.7697 1.62647 0.789091 -0.526625 -0.31623
1.469 33.4892 1.84069 0.728378 -0.621462 -0.285942
2.21017 34.2151 1.77176 0.497552 -0.818665 -0.286069
3.21231 34.5305 1.77797 -0.0833065 -0.90979 -0.406624
4.38495 34.4463 1.86205 -0.111525 -0.910066 -0.397048
5.40706 34.2709 1.8757 -0.352626 -0.710992 -0.608396
6.25028 33.5141 1.8082 -0.712078 -0.552812 -0.432832
6.69173 33.1476 1.50088 -0.770676 -0.571071 -0.136713
6.31525 34.0992 1.20019 -0.668208 -0.434886 -0.588962
6.05017 35.1976 0.797692 -0.40081 -0.225018 -0.888098
5.98523 36.3497 0.679438 -0.315468 -0.0779559 -0.945729
6.14821 37.5431 0.507326 -0.303281 -0.0742293 -0.950006
6.41571 38.5086 0.429444 -0.208715 0.0297327 -0.977491
6.46548 39.5548 0.456709 -0.224329 0.0354417 -0.973869
6.45502 40.6699 0.490145 -0.22545 0.0254194 -0.973923
6.43068 41.6904 0.499478 -0.193852 -0.0134995 -0.980938
6.43269 42.7011 0.467453 -0.15911 -0.0448306 -0.986225
6.44374 43.7475 0.406065 -0.161294 -0.0568366 -0.985268
6.06152 44.6535 0.381764 -0.165514 -0.122909 -0.978485
5.23399 45.2662 0.384452 -0.0816035 -0.17859 -0.980087
4.23908 45.6803 0.366086 -0.0346123 -0.193191 -0.980551
3.24421 45.5623 0.380908 0.0388489 -0.180346 -0.982836
2.20493 45.0324 0.3943 0.0944665 -0.204024 -0.974397
1.61979 44.2679 0.426631 0.148527 -0.109111 -0.982722
1.55418 43.1649 0.515207 0.144135 -0.0727755 -0.986825
1.53981 42.0133 0.575133 0.150525 -0.0327109 -0.987963
1.57518 40.8714 0.605196 0.16921 -0.00398035 -0.98555
1.54912 39.8344 0.590187 0.15063 0.0303805 -0.988107
1.52182 38.7937 0.548051 0.185548 0.0453109 -0.98159
1.52297 37.7815 0.510243 0.245728 0.0202103 -0.969128
1.68326 36.7315 0.552421 0.350548 0.030967 -0.93603
1.9847 35.6968 0.613376 0.355315 0.0465402 -0.933587
2.23878 34.7512 0.792964 0.371903 -0.516535 -0.696746
1.75439 34.0351 1.31508 0.668183 -0.665274 -0.33205
1.09941 33.2577 1.41913 0.729034 -0.584789 -0.354824
0.840942 32.844 1.55319 0.764567 -0.560446 -0.315581
0.363788 31.9366 1.88883 0.851553 -0.487225 -0.157267
0.148328 31.5265 0.965632 0.976923 -0.195372 -0.0347199
0.184113 32.0529 0.561152 0.985707 -0.0911912 -0.141654
0.52228 33.1324 0.550354 0.745621 -0.489112 -0.45204
1.19982 33.9769 0.473855 0.635136 -0.642234 -0.429113
1.28841 34.9085 0.267747 0.415267 0.118914 -0.901894
0.92032 35.9103 0.217215 0.355647 0.0885781 -0.930414
0.610511 36.9592 0.201727 0.284048 0.0963957 -0.953952
0.568941 38.1481 0.303928 0.222777 0.108434 -0.96882
0.573886 39.2757 0.398522 0.195014 0.0662048 -0.978563
0.589686 40.4824 0.422958 0.194614 0.00419096 -0.980852
0.567442 41.6281 0.415101 0.192073 -0.0078239 -0.981338
0.557985 42.6809 0.393413 0.168955 -0.0459613 -0.984359
0.587559 43.6987 0.308108 0.184014 -0.124402 -0.975019
0.618017 44.7059 0.180933 0.210871 -0.143129 -0.966979
1.29596 45.63 0.154136 0.160761 -0.206528 -0.965029
2.20235 46.1848 0.150776 0.118038 -0.229866 -0.966038
3.21421 46.6247 0.148867 0.0734513 -0.221508 -0.972383
4.25479 46.7223 0.149248 -0.0446385 -0.26807 -0.962359
5.32249 46.3495 0.1484 -0.125893 -0.210883 -0.969371
6.31697 45.7417 0.145831 -0.150973 -0.211287 -0.965694
7.08695 44.9419 0.14655 -0.19751 -0.128447 -0.971849
7.42676 43.9643 0.187586 -0.2336 -0.101237 -0.967048
7.40929 42.8159 0.289249 -0.156328 -0.0558211 -0.986126
7.41603 41.6393 0.288818 -0.21123 0.0147737 -0.977257
7.41954 40.6017 0.262962 -0.229538 0.0243909 -0.972992
7.42787 39.5987 0.23257 -0.22724 0.0314392 -0.973323
7.40916 38.5916 0.183998 -0.256283 0.0726575 -0.963842
7.1651 37.5959 0.184757 -0.300944 0.0705246 -0.951031
6.89638 36.6306 0.245047 -0.396859 -0.0393438 -0.916674
6.91344 35.628 0.291984 -0.44822 -0.103225 -0.887367
6.97811 34.6136 0.411204 -0.697011 -0.0430214 -0.715769
7.00335 33.5934 0.519072 -0.835368 -0.0369856 -0.548446
7.19831 32.6236 0.613973 -0.907465 -0.407261 -0.0324267
7.57894 32.2547 1.23572 -0.720593 -0.675389 0.15683
7.57254 32.4884 2.24416 -0.705296 -0.695563 0.13261
6.98732 32.9508 2.8115 -0.495383 -0.868674 0.000877618
6.01911 33.4317 2.79942 -0.418101 -0.908104 0.0186702
5.1021 33.9203 2.78561 -0.318417 -0.905108 -0.269549
4.12572 34.1527 2.80895 -0.185631 -0.947421 -0.260641
3.08083 34.2676 2.73863 0.160155 -0.961154 -0.224795
2.16 33.7793 2.78587 0.673427 -0.693363 -0.256405
1.45147 33.0353 2.82785 0.714351 -0.64585 -0.269407
0.778078 32.2582 2.83485 0.711957 -0.700743 -0.0438502
0.397618 31.9389 1.99615 0.799699 -0.572138 -0.160355
2.73797 35.3605 0.855148 0.252978 -0.0371613 -0.966758
3.78878 35.443 1.10944 0.134593 -0.0973801 -0.986104
4.87708 35.427 1.07329 -0.173652 -0.234368 -0.956513
5.5416 35.3687 0.924684 -0.284003 -0.141534 -0.94832
5.40498 34.577 1.43935 -0.149768 -0.851089 -0.503208
5.66152 34.5414 1.40037 -0.353866 -0.791264 -0.498678
5.46457 36.3493 0.837953 -0.244762 -0.0863719 -0.965728
4.40811 36.3847 1.03247 -0.0767476 -0.125352 -0.989139
3.3057 36.3655 0.988283 0.222844 -0.0341686 -0.974255
2.36271 36.3181 0.76325 0.29127 0.00983512 -0.95659
2.09652 37.3021 0.696465 0.248931 -0.105602 -0.962747
3.14822 37.3214 0.847002 0.112059 -0.127752 -0.985455
4.24524 37.3331 0.887243 -0.0616688 -0.163403 -0.98463
5.43916 37.3232 0.726819 -0.218101 -0.137918 -0.966132
5.50514 37.3215 0.708366 -0.270246 -0.121906 -0.955042
5.8211 38.285 0.552366 -0.219961 -0.00594921 -0.97549
4.81198 38.2887 0.735744 -0.159506 -0.0411893 -0.986337
3.60745 38.2872 0.818432 0.0858059 -0.036157 -0.995656
2.58006 38.2784 0.697686 0.119147 -0.0124382 -0.992799
2.00816 38.2752 0.615472 0.147932 0.00120366 -0.988997
2.09607 39.2439 0.653276 0.12527 0.0332635 -0.991565
3.09631 39.2476 0.766155 0.0752433 0.0231206 -0.996897
4.11895 39.2516 0.807251 -0.0884066 0.016881 -0.995941
5.14728 39.2523 0.68488 -0.145971 0.0265488 -0.988933
5.81461 39.2521 0.578045 -0.172431 0.035706 -0.984374
5.96513 40.2177 0.578983 -0.183051 0.0360694 -0.982442
4.96984 40.2172 0.730186 -0.130346 -0.00833244 -0.991434
3.94509 40.2171 0.804831 -0.0104748 -0.00198049 -0.999943
2.9312 40.2138 0.76401 0.0822327 -0.00482688 -0.996601
2.12818 40.2108 0.687737 0.122922 0.0296979 -0.991972
2.23521 41.1774 0.696514 0.11333 -0.0223914 -0.993305
3.40661 41.1809 0.777227 0.0385095 -0.0168675 -0.999116
4.43687 41.1827 0.762139 -0.0661954 -0.0214796 -0.997575
5.47517 41.1829 0.65859 -0.117754 -0.0273894 -0.992665
5.89327 41.1824 0.596508 -0.150984 -0.0334865 -0.987969
5.79088 42.1462 0.588173 -0.152063 -0.0356524 -0.987728
4.60598 42.1492 0.724727 -0.0778663 -0.047631 -0.995825
3.58535 42.1483 0.759158 0.0250323 -0.0431539 -0.998755
2.57938 42.1438 0.692426 0.0928505 -0.0366889 -0.995004
2.15334 42.1414 0.649239 0.0986088 -0.0579238 -0.993439
2.08722 43.1034 0.585877 0.11171 -0.0749977 -0.990907
3.15957 43.1124 0.688069 0.059187 -0.0648248 -0.99614
4.1996 43.1157 0.702815 -0.0646043 -0.089136 -0.993922
5.23266 43.1127 0.618395 -0.115716 -0.0687759 -0.990898
5.8808 43.1084 0.533933 -0.142227 -0.0459931 -0.988765
5.80652 44.0706 0.485885 -0.113601 -0.0815256 -0.990176
4.63123 44.0778 0.58672 -0.0437918 -0.110617 -0.992898
3.48548 44.076 0.599621 0.0322384 -0.115212 -0.992818
2.47569 44.0685 0.542072 0.0773166 -0.102946 -0.991678
2.24894 44.0669 0.52651 0.0688585 -0.104484 -0.99214
3.32585 45.0318 0.47123 0.0324283 -0.145095 -0.988886
4.37075 45.0344 0.471312 -0.0349636 -0.139792 -0.989563
4.4241 45.0343 0.469439 -0.0454124 -0.139048 -0.989244
4.46794 45.0341 0.466993 -0.0558563 -0.138289 -0.988816
