0.797088 32.9732 1.46686 0.766896 -0.529232 -0.362991
1.39677 33.7648 1.35573 0.703486 -0.636108 -0.316976
1.91793 34.5092 0.979502 0.604016 -0.665547 -0.43842
1.81649 35.4461 0.658859 0.374256 0.0198634 -0.927113
1.51844 36.4088 0.602607 0.37201 0.053488 -0.926196
1.55789 37.597 0.606899 0.256557 -0.0139042 -0.966237
1.55651 38.73 0.639491 0.174563 0.044233 -0.983652
1.54489 39.8278 0.68049 0.154649 0.0235871 -0.987653
1.54708 40.9637 0.689539 0.178615 -0.0033802 -0.983908
1.5585 41.993 0.666482 0.148241 -0.0494449 -0.987684
1.56508 43.1668 0.604096 0.130821 -0.067481 -0.989097
1.54313 44.2894 0.506315 0.190308 -0.120388 -0.973826
1.90058 45.2231 0.411121 0.123891 -0.212432 -0.96929
2.76721 45.7555 0.397471 0.0815293 -0.221151 -0.971826
3.81864 46.0154 0.405162 0.0246334 -0.156108 -0.987433
4.88142 45.8363 0.396889 -0.0777712 -0.193845 -0.977945
5.83549 45.2456 0.402765 -0.120124 -0.181806 -0.97597
6.43255 44.4525 0.440677 -0.184454 -0.114008 -0.975797
6.48548 43.4333 0.507712 -0.165665 -0.0622969 -0.984212
6.44418 42.3286 0.563792 -0.166434 -0.0202846 -0.985844
6.42011 41.269 0.588525 -0.182883 -8.51198e-05 -0.983135
6.43917 40.2548 0.571352 -0.218901 0.0178368 -0.975584
6.45999 39.2494 0.535576 -0.227958 0.0364451 -0.972989
6.48429 38.245 0.498966 -0.270398 0.0103611 -0.962693
6.3779 37.1991 0.548879 -0.38154 -0.0356729 -0.923664
6.23744 36.2071 0.685431 -0.40544 -0.0603219 -0.912129
6.25913 35.1912 0.794925 -0.399727 -0.205448 -0.893049
6.49559 34.1375 1.18101 -0.652135 -0.367053 -0.661859
6.79499 33.1949 1.43731 -0.721172 -0.590582 -0.327906
6.28876 33.6453 1.81991 -0.735652 -0.508432 -0.429538
5.58184 34.3494 1.89183 -0.364156 -0.717317 -0.594009
4.51556 34.5707 1.86599 -0.124749 -0.806142 -0.57593
3.36803 34.6222 1.77122 -0.0303057 -0.974228 -0.223519
2.28804 34.3539 1.79389 0.485375 -0.835846 -0.255049
1.49651 33.6338 1.83618 0.678261 -0.665194 -0.312216
0.852998 32.918 1.70153 0.747071 -0.585052 -0.315592
0.797176 32.973 1.46733 0.779875 -0.528325 -0.334415
0.404623 33.1715 0.529622 0.79691 -0.467131 -0.383045
1.02044 33.9685 0.462963 0.636901 -0.627175 -0.448341
0.995352 34.9966 0.276315 0.452919 0.150339 -0.878785
0.601307 36.0246 0.215095 0.337677 0.0879456 -0.937122
0.557129 37.1717 0.295031 0.273787 0.08083 -0.958388
0.569831 38.3195 0.409005 0.199914 0.0954753 -0.975151
0.563542 39.54 0.49634 0.179267 0.023752 -0.983351
0.569017 40.6572 0.505879 0.202644 -0.0036557 -0.979246
0.549443 41.8208 0.494859 0.193977 -0.0127302 -0.980924
0.570107 43.008 0.461923 0.164881 -0.0762737 -0.983202
0.573348 44.055 0.351697 0.207619 -0.133144 -0.969106
0.580842 45.0787 0.203472 0.199194 -0.145069 -0.969142
1.08305 45.8828 0.155003 0.165801 -0.208783 -0.963805
2.01998 46.4535 0.155763 0.121608 -0.230486 -0.965426
3.08602 46.9231 0.152564 0.0729714 -0.250735 -0.965301
4.2361 47.034 0.158121 -0.0329383 -0.260525 -0.964845
5.35212 46.7157 0.14717 -0.114913 -0.235315 -0.965085
6.24642 46.1679 0.154548 -0.14241 -0.220167 -0.965
7.05777 45.5591 0.147266 -0.194457 -0.167925 -0.96643
7.42941 44.4128 0.224283 -0.226904 -0.119123 -0.966605
7.45215 43.3428 0.330756 -0.200862 -0.0736448 -0.976837
7.42155 42.1709 0.376687 -0.196248 0.00594516 -0.980473
7.41505 41.0968 0.363334 -0.226843 0.0238945 -0.973638
7.42188 40.0048 0.334028 -0.232448 0.0258383 -0.972266
7.46396 38.9597 0.281886 -0.238778 0.0616615 -0.968924
7.43589 37.8764 0.204448 -0.265803 0.0864884 -0.96014
7.27374 36.8655 0.184571 -0.326991 0.0255346 -0.943982
7.11267 35.8286 0.280061 -0.457046 -0.101238 -0.883435
7.18524 34.7661 0.395088 -0.700991 -0.0384174 -0.710598
7.1909 33.7095 0.483968 -0.828627 0.0291833 -0.55904
7.38984 32.6178 0.568639 -0.821243 -0.48134 -0.201911
7.58453 32.3941 1.37354 -0.720526 -0.684145 0.0928981
7.55156 32.6204 2.37717 -0.658698 -0.74146 0.127884
6.94001 33.042 2.83527 -0.507286 -0.859316 -0.0647899
5.94321 33.6069 2.805 -0.594176 -0.791144 -0.145072
5.03759 34.044 2.79705 -0.255681 -0.913181 -0.317377
3.9329 34.3001 2.76605 -0.159724 -0.940029 -0.297762
2.86776 34.3291 2.76969 0.245933 -0.942549 -0.177687
2.02977 33.7683 2.80882 0.674754 -0.678216 -0.290968
1.30522 32.997 2.83722 0.716841 -0.649788 -0.252392
0.577997 32.1996 2.83123 0.623699 -0.778269 -0.0727816
0.335456 32.0481 1.877 0.848332 -0.522723 -0.0549614
0.101629 31.6393 0.976152 0.98281 -0.17861 -0.0467326
0.128197 32.071 0.637855 0.96188 -0.0911159 -0.257848
0.390135 33.1462 0.530337 0.810942 -0.43841 -0.386184
2.37263 35.2757 0.888238 0.318572 -0.134831 -0.93826
3.43559 35.3937 1.20019 0.194955 -0.155478 -0.968411
4.46337 35.4189 1.28658 -0.107954 -0.18178 -0.977395
5.49189 35.3247 1.05297 -0.239051 -0.332499 -0.912304
5.73422 35.2946 0.991492 -0.383135 -0.229491 -0.89473
5.57628 36.2427 0.924692 -0.274644 -0.0734273 -0.958738
4.48733 36.2932 1.14104 -0.115475 -0.0839575 -0.989756
3.48204 36.286 1.15035 0.187024 -0.113737 -0.975749
2.40058 36.2197 0.88705 0.302587 0.0025564 -0.953118
2.0793 36.1952 0.7802 0.321402 0.0352882 -0.946285
2.02144 37.1438 0.777832 0.288446 -0.107098 -0.951488
3.07636 37.1779 0.979273 0.101095 -0.172504 -0.979807
4.14106 37.1912 1.01273 -0.0533 -0.16911 -0.984155
5.17468 37.1793 0.89781 -0.160926 -0.186158 -0.969251
5.69212 37.1661 0.790188 -0.241924 -0.162339 -0.956618
5.81897 38.0826 0.65439 -0.208821 -0.0422727 -0.97704
4.70391 38.0918 0.849299 -0.156927 -0.0446528 -0.9866
3.61911 38.0924 0.916743 0.0760746 -0.0463799 -0.996023
2.55531 38.0805 0.795559 0.122986 -0.0396988 -0.991614
2.226 38.0767 0.746395 0.159256 -0.0353654 -0.986604
2.17835 38.9972 0.743543 0.125173 0.0403239 -0.991315
3.3295 39.0033 0.867774 0.0747736 0.0202406 -0.996995
4.46289 39.006 0.859224 -0.108906 0.00623965 -0.994032
5.47292 39.004 0.714949 -0.158746 0.0289778 -0.986894
5.86099 39.003 0.648994 -0.175336 0.0354824 -0.983869
5.90414 39.9221 0.670719 -0.185848 0.0259664 -0.982235
4.82114 39.9227 0.836946 -0.117149 0.0244755 -0.992813
3.65346 39.9216 0.88334 0.00518547 0.00573696 -0.99997
2.57533 39.9176 0.819293 0.113627 0.0163163 -0.99339
2.16216 39.916 0.769399 0.125627 0.0160914 -0.991947
2.19973 40.8356 0.779983 0.098628 -0.0111232 -0.995062
3.20206 40.8398 0.862847 0.0501441 -0.0197231 -0.998547
4.22514 40.8418 0.866463 -0.0634106 -0.0413606 -0.99713
5.29824 40.8408 0.774217 -0.107647 -0.0214818 -0.993957
5.86246 40.8405 0.69447 -0.168599 -0.0156531 -0.98556
5.90038 41.7563 0.672478 -0.136475 -0.0338941 -0.990064
4.8794 41.7585 0.7967 -0.0987921 -0.0186394 -0.994934
3.7993 41.7591 0.860561 0.0137219 -0.0317942 -0.9994
2.79942 41.756 0.814657 0.0778767 -0.0377937 -0.996246
2.19286 41.7532 0.761801 0.0927374 -0.0522684 -0.994318
2.0816 42.6682 0.701281 0.110106 -0.0546425 -0.992417
3.2068 42.6764 0.805535 0.0788303 -0.0541302 -0.995417
4.40514 42.6786 0.810902 -0.0565584 -0.00224956 -0.998397
5.43883 42.674 0.702909 -0.126846 -0.0398823 -0.99112
5.92424 42.6709 0.635598 -0.145656 -0.0364236 -0.988665
5.87685 43.5855 0.597412 -0.14778 -0.0661715 -0.986804
4.84806 43.594 0.714047 -0.0845471 -0.0789841 -0.993284
3.83527 43.5956 0.751127 0.00985392 -0.109417 -0.993947
2.82285 43.5895 0.709496 0.0678123 -0.0893073 -0.993693
2.19194 43.5835 0.649043 0.107475 -0.0878297 -0.990321
2.13223 44.4958 0.555018 0.0991346 -0.104478 -0.989574
3.14763 44.5039 0.621308 0.0404018 -0.123736 -0.991492
4.18338 44.5078 0.635804 -0.027607 -0.132827 -0.990755
5.24284 44.5025 0.572221 -0.0996676 -0.134129 -0.985939
5.86577 44.498 0.515026 -0.0991884 -0.107318 -0.989265
4.5535 45.4158 0.493741 -0.0442595 -0.145887 -0.988311
3.49824 45.4158 0.506732 0.0218185 -0.184142 -0.982657
3.41571 45.4153 0.503676 0.0437192 -0.171098 -0.984283
