0.920951 33.2659 1.52384 0.750224 -0.555983 -0.357837
1.48789 33.7352 1.889 0.698375 -0.642868 -0.314602
2.25245 34.4601 1.80713 0.539783 -0.765482 -0.344834
3.20289 34.7359 1.74752 -0.00823148 -0.850532 -0.519507
4.38028 34.733 1.82851 -0.0851912 -0.864574 -0.495232
5.38406 34.5738 1.90442 -0.229999 -0.788207 -0.564015
6.2735 33.9335 1.85436 -0.690717 -0.525819 -0.496385
6.81943 33.3422 1.5212 -0.726773 -0.59673 -0.340168
6.58569 34.351 1.15877 -0.617047 -0.430204 -0.656845
6.41025 35.3706 0.833014 -0.420988 -0.192757 -0.884223
6.44537 36.3686 0.691204 -0.420228 -0.0930776 -0.902083
6.46722 37.5216 0.595766 -0.365247 -0.0347464 -0.930262
6.44912 38.7377 0.609419 -0.234871 0.0299099 -0.971566
6.41897 39.9101 0.654782 -0.192243 0.0270906 -0.980973
6.40259 40.9149 0.675418 -0.207911 -0.0132918 -0.978057
6.38709 41.9517 0.671971 -0.176993 -0.0252883 -0.983853
6.43171 43.1847 0.619616 -0.157416 -0.0540271 -0.986022
6.46805 44.2175 0.537027 -0.177075 -0.072138 -0.98155
6.28548 45.2564 0.427974 -0.185849 -0.184972 -0.964689
5.4475 45.8806 0.417387 -0.128998 -0.196879 -0.971904
4.43372 46.2326 0.437344 -0.0835427 -0.194598 -0.977319
3.39623 46.2277 0.43559 0.0337127 -0.221317 -0.974619
2.39155 45.9026 0.418012 0.116013 -0.201495 -0.972594
1.6451 45.2651 0.454617 0.143737 -0.196224 -0.969967
1.5613 44.0991 0.605883 0.167766 -0.103089 -0.980422
1.58511 42.9101 0.710624 0.14503 -0.061175 -0.987534
1.60907 41.8036 0.765417 0.151077 -0.040883 -0.987676
1.55938 40.7189 0.784959 0.157548 0.000125589 -0.987397
1.56925 39.7155 0.770102 0.155222 0.0182375 -0.987683
1.58185 38.5287 0.726393 0.184217 0.0514829 -0.981433
1.55824 37.4849 0.714398 0.287688 -0.0223854 -0.957463
1.51254 36.4084 0.70351 0.35091 0.0237142 -0.936109
1.63032 35.376 0.707928 0.351865 -0.0190875 -0.935856
1.70624 34.4292 1.00473 0.573464 -0.551361 -0.579078
1.0986 33.5458 1.40208 0.70205 -0.61257 -0.362867
0.94954 33.3334 1.47887 0.726299 -0.587844 -0.354015
0.493044 33.4511 0.530034 0.722684 -0.524756 -0.449839
0.966656 34.3546 0.352723 0.718214 -0.156747 -0.596849
0.631616 35.362 0.262388 0.404234 0.143199 -0.903376
0.559037 36.4053 0.332967 0.340371 0.0878391 -0.93618
0.579198 37.4551 0.413332 0.29742 0.0681984 -0.952165
0.589937 38.5916 0.526959 0.2052 0.0949685 -0.974102
0.572876 39.6278 0.586508 0.188663 0.0208883 -0.981813
0.571262 40.6286 0.592943 0.201654 -0.00217256 -0.979454
0.601303 41.7664 0.591816 0.187115 -0.00860578 -0.9823
0.5833 42.866 0.556632 0.156072 -0.0523366 -0.986303
0.580973 43.9225 0.452852 0.193044 -0.119346 -0.973905
0.585824 44.9779 0.309849 0.205364 -0.146651 -0.967623
0.755567 45.9988 0.16837 0.166425 -0.196809 -0.965981
1.58333 46.574 0.160283 0.131251 -0.227763 -0.964827
2.54481 47.0587 0.160656 0.0871073 -0.24072 -0.966656
3.57071 47.2894 0.172567 0.046446 -0.272661 -0.960989
4.60665 47.2427 0.171882 -0.0489908 -0.268793 -0.961951
5.60602 46.9323 0.156132 -0.124113 -0.228343 -0.965622
6.47077 46.3947 0.159819 -0.147132 -0.218341 -0.964715
7.32161 45.647 0.164181 -0.202874 -0.162208 -0.965676
7.42637 44.5663 0.295482 -0.226136 -0.120486 -0.966606
7.42801 43.4164 0.418827 -0.206458 -0.0817464 -0.975032
7.40293 42.2197 0.475455 -0.193354 -0.0193585 -0.980931
7.40021 41.1798 0.455134 -0.226489 0.02404 -0.973715
7.41061 40.1712 0.428668 -0.23299 0.0311254 -0.971981
7.41521 39.1113 0.388989 -0.231863 0.0546838 -0.971108
7.43411 38.0162 0.30601 -0.270469 0.0840254 -0.959042
7.43735 37.012 0.226454 -0.339249 0.0236332 -0.9404
7.33536 36.0051 0.274522 -0.459072 -0.0460501 -0.887198
7.36116 34.8045 0.417702 -0.642575 -0.0958237 -0.753324
7.34901 33.6498 0.492403 -0.838199 0.0198986 -0.545001
7.44478 32.6466 0.584505 -0.874254 -0.379693 -0.146245
7.56322 32.5666 1.47134 -0.702847 -0.696997 0.142133
7.52674 32.7423 2.47013 -0.66388 -0.742099 0.0924818
6.82792 33.1741 2.79854 -0.42587 -0.904462 -0.0241427
5.90473 33.7011 2.79737 -0.629701 -0.760141 -0.160198
5.02814 34.1674 2.76534 -0.233019 -0.900568 -0.363005
4.0432 34.3827 2.75035 -0.158628 -0.938856 -0.303082
2.9348 34.4386 2.74349 0.293041 -0.934937 -0.18231
2.00018 33.8502 2.81091 0.644479 -0.702372 -0.302194
1.29034 33.1052 2.82329 0.722499 -0.631072 -0.281048
0.606671 32.3022 2.80072 0.699084 -0.709845 -0.0687221
0.315665 32.1606 1.85172 0.88089 -0.435706 -0.152102
0.241489 32.7634 0.826046 0.857091 -0.411509 -0.306572
0.391442 33.2905 0.554927 0.802169 -0.449388 -0.368249
2.25021 35.4187 0.942566 0.374884 -0.129084 -0.918041
3.28141 35.5423 1.25259 0.235652 -0.187256 -0.953626
4.32392 35.5821 1.36278 -0.0121536 -0.147278 -0.98902
5.43445 35.5021 1.19277 -0.278662 -0.16576 -0.945976
5.70443 35.4645 1.09464 -0.347861 -0.352308 -0.868834
5.89602 36.3962 0.914379 -0.341589 -0.0992158 -0.934598
4.93102 36.4541 1.17835 -0.215872 -0.154205 -0.964168
3.93014 36.4754 1.28794 0.0960314 -0.175878 -0.979717
2.89711 36.4252 1.14153 0.140635 -0.0270626 -0.989692
2.09563 36.3754 0.911659 0.314025 0.012142 -0.949337
2.07239 37.3313 0.871229 0.236485 -0.126718 -0.963336
3.22233 37.3645 1.07063 0.118378 -0.191085 -0.974409
4.36373 37.3725 1.06761 -0.0534603 -0.197748 -0.978794
5.449 37.3571 0.924781 -0.160511 -0.158889 -0.974162
5.9992 37.342 0.778855 -0.325557 -0.160928 -0.931727
5.74658 38.2792 0.757777 -0.184838 -0.00568251 -0.982753
4.71069 38.2873 0.933145 -0.174788 -0.0446931 -0.983591
3.64986 38.2877 1.00082 0.0615203 -0.0431183 -0.997174
2.62734 38.2766 0.886038 0.118524 -0.0120024 -0.992879
2.13392 38.2712 0.819226 0.138178 -0.00387619 -0.9904
2.15968 39.2056 0.838983 0.122605 0.0373147 -0.991754
3.20662 39.2113 0.951108 0.0783084 0.0151133 -0.996815
4.40786 39.2148 0.958821 -0.093379 -0.010619 -0.995574
5.43966 39.2127 0.81501 -0.152579 0.0364825 -0.987618
5.87308 39.211 0.743169 -0.169555 0.0329657 -0.984969
5.89866 40.1435 0.762041 -0.176791 0.0304691 -0.983777
4.90264 40.1454 0.912404 -0.136387 -0.00521587 -0.990642
3.83704 40.1451 0.97735 -0.00714288 -0.0152374 -0.999858
2.80597 40.1411 0.93561 0.0882935 0.0113494 -0.99603
2.07854 40.1384 0.853396 0.122039 0.027427 -0.992146
2.27883 41.0726 0.87458 0.105368 -0.019055 -0.994251
3.43671 41.0776 0.950423 0.0197685 -0.0135927 -0.999712
4.55395 41.0778 0.928845 -0.0722512 -0.023349 -0.997113
5.66034 41.0761 0.801326 -0.148351 -0.0327486 -0.988392
5.72468 41.076 0.790662 -0.162231 -0.0219232 -0.986509
5.82094 42.0067 0.760555 -0.13395 -0.033493 -0.990422
4.81323 42.0104 0.884182 -0.112694 -0.0182526 -0.993462
3.81345 42.0108 0.940585 -6.39319e-06 -0.0319083 -0.999491
2.68869 42.0067 0.87991 0.0911987 -0.0351073 -0.995214
2.23623 42.0044 0.838584 0.0962652 -0.0531428 -0.993936
2.17214 42.9338 0.783246 0.105232 -0.0630464 -0.992447
3.32907 42.942 0.879172 0.0468888 -0.0825694 -0.995482
4.36136 42.9428 0.879782 -0.0546039 -0.0537673 -0.997059
5.47552 42.9382 0.773649 -0.131189 -0.047978 -0.990196
5.84826 42.9356 0.722913 -0.138635 -0.0481266 -0.989173
5.86463 43.8639 0.6634 -0.133632 -0.0588966 -0.989279
4.81945 43.8717 0.76804 -0.0850877 -0.126594 -0.988299
3.81643 43.8737 0.805082 0.012573 -0.11511 -0.993273
2.74571 43.8678 0.765091 0.0718501 -0.093945 -0.992981
2.17475 43.8623 0.715001 0.10377 -0.0691927 -0.992192
2.27381 44.7889 0.615911 0.10877 -0.128052 -0.985785
3.37091 44.7991 0.682924 0.0320454 -0.13788 -0.98993
4.43444 44.7998 0.677895 -0.0391673 -0.119534 -0.992057
5.49922 44.7933 0.604257 -0.111989 -0.141535 -0.983578
5.89719 44.7885 0.55841 -0.117766 -0.141797 -0.982866
4.32467 45.7219 0.541866 -0.0432249 -0.179976 -0.982721
3.60076 45.7212 0.5476 0.0239644 -0.17893 -0.98357
3.52723 45.7208 0.545704 0.026376 -0.178913 -0.983511
