1.10587 33.6023 1.54104 0.718509 -0.609393 -0.334237
1.49474 34.3547 0.998569 0.671812 -0.63057 -0.388622
1.50192 35.4183 0.75765 0.422028 -0.00230075 -0.90658
1.52209 36.6208 0.833262 0.36593 0.0295989 -0.930154
1.58832 37.7329 0.814001 0.279868 -0.0311087 -0.959534
1.60733 38.7745 0.827976 0.155325 0.0431674 -0.98692
1.60294 39.8575 0.868143 0.139713 0.0218727 -0.98995
1.62616 40.9039 0.878147 0.167349 -0.029498 -0.985456
1.59907 41.9971 0.844114 0.156163 -0.0459217 -0.986553
1.58181 43.1345 0.784448 0.145772 -0.0617031 -0.987391
1.5746 44.1957 0.693928 0.137134 -0.094566 -0.986013
1.5887 45.4022 0.502839 0.149323 -0.190354 -0.970293
2.30827 46.2452 0.417109 0.105897 -0.22332 -0.968971
3.33607 46.5376 0.44815 0.0418377 -0.231766 -0.971871
4.4292 46.556 0.461185 -0.0629088 -0.267522 -0.961065
5.51049 46.2117 0.426495 -0.123746 -0.213922 -0.968981
6.34816 45.5189 0.457043 -0.155542 -0.205049 -0.966313
6.44366 44.4676 0.602318 -0.180279 -0.101319 -0.978305
6.43295 43.4668 0.685687 -0.162484 -0.0721119 -0.984072
6.43478 42.3607 0.739837 -0.166015 -0.0205232 -0.98591
6.38552 41.3566 0.772045 -0.19032 -0.00404372 -0.981714
6.47155 40.3082 0.74663 -0.213171 0.0264917 -0.976348
6.4706 39.2787 0.711025 -0.225914 0.0362203 -0.973474
6.46257 38.1932 0.682821 -0.264085 0.0193508 -0.964305
6.4893 37.1409 0.715596 -0.378765 -0.0977693 -0.919492
6.54864 36.0661 0.774826 -0.446605 -0.0647337 -0.892386
6.67902 34.9821 0.900767 -0.477852 -0.266153 -0.834942
6.93102 33.9492 1.22084 -0.739642 -0.264416 -0.618881
6.63596 33.6379 1.80461 -0.703925 -0.643336 -0.298526
5.928 34.3859 1.90146 -0.552237 -0.675437 -0.486797
4.93358 34.7812 1.89748 -0.0917254 -0.759074 -0.64451
3.7435 34.8991 1.81673 0.0437478 -0.846323 -0.53087
2.73804 34.7553 1.79695 0.12526 -0.917386 -0.377774
1.86029 34.2676 1.78452 0.64824 -0.666778 -0.367401
1.16594 33.5251 1.82837 0.73406 -0.601576 -0.315059
1.10821 33.5222 1.69942 0.73406 -0.601576 -0.315059
0.369511 32.8538 1.24393 0.779231 -0.491092 -0.389393
0.426095 33.5576 0.564574 0.799744 -0.423699 -0.42531
0.710192 34.473 0.334383 0.526889 0.0908625 -0.845064
0.55176 35.4708 0.358463 0.407584 0.143084 -0.901888
0.574884 36.611 0.455456 0.344016 0.0292594 -0.938508
0.586746 37.6697 0.525693 0.273169 0.0607262 -0.960047
0.599465 38.7585 0.627969 0.194332 0.0824168 -0.977467
0.583156 39.8415 0.681991 0.202025 0.0122867 -0.979303
0.588775 40.9538 0.682161 0.202116 -0.00482521 -0.97935
0.586111 42.0389 0.672273 0.186137 -0.0116365 -0.982455
0.566679 43.1134 0.627659 0.158086 -0.086455 -0.983283
0.572019 44.3698 0.482258 0.202848 -0.125617 -0.97112
0.583075 45.4021 0.326645 0.200519 -0.163428 -0.965963
0.830631 46.4541 0.168197 0.155646 -0.210489 -0.965126
1.66335 47.0155 0.155404 0.135616 -0.235444 -0.96238
2.60313 47.4011 0.167936 0.0877083 -0.256881 -0.962409
3.67588 47.6049 0.168968 0.0236663 -0.283973 -0.95854
4.66867 47.5242 0.171475 -0.0506443 -0.277156 -0.959475
5.6678 47.2383 0.161563 -0.116161 -0.249611 -0.961354
6.6156 46.6885 0.161293 -0.140282 -0.222594 -0.964761
7.40106 45.893 0.201011 -0.193529 -0.191423 -0.96223
7.42893 44.821 0.348945 -0.216182 -0.122708 -0.968598
7.40211 43.7454 0.481877 -0.214972 -0.100864 -0.971398
7.43987 42.7278 0.544809 -0.199647 -0.0386419 -0.979026
7.40023 41.718 0.554097 -0.211565 0.0111457 -0.9773
7.43022 40.7178 0.524227 -0.233052 0.0251085 -0.97214
7.43629 39.7132 0.498239 -0.233624 0.0267843 -0.971944
7.43958 38.5839 0.438848 -0.261432 0.0719107 -0.962538
7.43037 37.5424 0.36285 -0.289221 0.0567559 -0.955578
7.43691 36.4071 0.319191 -0.385094 -0.00499817 -0.922752
7.51174 35.3386 0.377241 -0.549964 -0.11654 -0.827017
7.57861 34.2472 0.454202 -0.797468 0.0250977 -0.602566
7.53618 33.0906 0.493629 -0.835597 -0.028767 -0.548589
7.57079 32.6792 1.23862 -0.726627 -0.680292 -0.0015132
7.53015 32.8242 2.24389 -0.632032 -0.769861 0.0882741
6.91423 33.2128 2.80287 -0.438281 -0.898087 -0.0367315
5.96834 33.7864 2.79126 -0.510259 -0.829482 -0.226114
4.9855 34.287 2.78119 -0.163732 -0.89849 -0.39872
3.92448 34.4999 2.74601 -0.170603 -0.946776 -0.272949
2.92161 34.5232 2.7449 0.173242 -0.950395 -0.258334
2.02054 33.9941 2.76878 0.655272 -0.70019 -0.283465
1.31734 33.2624 2.81714 0.720841 -0.639231 -0.267903
0.58758 32.4085 2.80811 0.72648 -0.684887 -0.0559592
0.354081 32.422 1.83397 0.796597 -0.528663 -0.29317
0.373003 32.7985 1.32058 0.776763 -0.503014 -0.37862
2.06165 35.5315 1.01 0.349219 -0.0225399 -0.93677
3.10062 35.6605 1.32356 0.26715 -0.0276698 -0.963258
4.08487 35.717 1.51978 -0.0718002 -0.108011 -0.991554
5.10843 35.6616 1.34597 -0.245611 -0.229299 -0.941859
6.04696 35.5436 1.0559 -0.3967 -0.143689 -0.906633
6.00849 36.5285 0.968866 -0.34984 -0.109904 -0.93034
4.95768 36.5931 1.25109 -0.193929 -0.119564 -0.973702
3.86156 36.6163 1.36505 0.083181 -0.180277 -0.980092
2.80856 36.5676 1.23868 0.2031 -0.0316181 -0.978647
2.12163 36.5236 1.03576 0.29026 0.017543 -0.956787
2.13502 37.486 0.971606 0.203726 -0.128823 -0.970516
3.24979 37.5185 1.15386 0.0946582 -0.184204 -0.978319
4.28975 37.5255 1.15295 -0.0973025 -0.184067 -0.978086
5.38687 37.51 1.01231 -0.20101 -0.145622 -0.968705
5.85192 37.4971 0.900429 -0.261251 -0.0928104 -0.960799
5.85906 38.443 0.820906 -0.174124 -0.00983588 -0.984675
4.72968 38.4525 1.01404 -0.174764 -0.012713 -0.984528
3.68722 38.454 1.08603 0.0526913 -0.039998 -0.997809
2.69192 38.4426 0.97928 0.120992 -0.0154068 -0.992534
2.20965 38.437 0.919022 0.129468 0.00190014 -0.991582
2.25161 39.3842 0.945246 0.119282 0.0350059 -0.992243
3.32117 39.3911 1.05744 0.0993856 0.0169893 -0.994904
4.32812 39.3943 1.06181 -0.0641601 0.00470112 -0.997929
5.41366 39.3913 0.914951 -0.15477 0.034085 -0.987362
5.91155 39.3894 0.831542 -0.177998 0.0319141 -0.983513
5.96209 40.3357 0.845681 -0.179372 0.00713155 -0.983755
4.91578 40.3372 0.994708 -0.102312 -0.0154417 -0.994633
3.88767 40.3373 1.06304 -0.00806626 -0.0489543 -0.998768
2.85409 40.3336 1.02607 0.0539249 -0.00324698 -0.99854
2.13688 40.3299 0.955886 0.118843 0.0340533 -0.992329
2.15634 41.2768 0.939968 0.108987 -0.0157045 -0.993919
3.1848 41.2815 1.02584 0.0394909 -0.0245145 -0.998919
4.3435 41.2836 1.01944 -0.0555507 -0.0380168 -0.997732
5.41761 41.2823 0.921371 -0.125386 -0.0115304 -0.992041
5.87149 41.2812 0.860318 -0.141558 -0.0116259 -0.989862
5.79916 42.2246 0.844265 -0.134314 -0.0434899 -0.989984
4.66623 42.229 0.977862 -0.107152 -0.0304063 -0.993778
3.64747 42.2298 1.01225 0.00518245 -0.018893 -0.999808
2.60412 42.2252 0.951744 0.0928273 -0.0521598 -0.994315
2.16948 42.2221 0.907778 0.110006 -0.0524068 -0.992548
2.18166 43.1653 0.85497 0.111097 -0.0747703 -0.990993
3.29214 43.1741 0.948964 0.0479914 -0.0779023 -0.995805
4.3599 43.1767 0.954007 -0.0438628 -0.103103 -0.993703
5.50877 43.1703 0.84525 -0.123928 -0.0545307 -0.990792
5.94858 43.1661 0.782295 -0.152317 -0.0583279 -0.986609
5.73954 44.1096 0.743108 -0.106694 -0.101399 -0.989108
4.68579 44.1182 0.841269 -0.0440946 -0.126689 -0.990962
3.5746 44.1187 0.861909 0.0194837 -0.129936 -0.991331
2.52288 44.1116 0.809892 0.0836846 -0.0809467 -0.993199
2.2731 44.1085 0.78767 0.0948364 -0.11273 -0.989089
2.14362 45.0429 0.648495 0.120922 -0.178102 -0.976554
3.25251 45.0557 0.729478 0.0443978 -0.138993 -0.989298
4.29299 45.0592 0.737851 -0.0311924 -0.134937 -0.990363
5.41049 45.051 0.660226 -0.0897723 -0.126726 -0.987867
5.84094 45.0463 0.615161 -0.118158 -0.145873 -0.982222
4.63207 45.9892 0.561837 -0.0622805 -0.196448 -0.978534
3.61488 45.9916 0.586911 0.0547905 -0.19152 -0.979958
3.14949 45.9871 0.564189 0.0763743 -0.202039 -0.976395
6.10113 34.6319 1.47291 -0.449631 -0.556452 -0.698708
6.28019 34.5728 1.40476 -0.528842 -0.518175 -0.672176
6.37873 34.5247 1.34756 -0.603588 -0.475523 -0.639968
