1.11685 33.7193 1.64078 0.727656 -0.595773 -0.339958
1.83986 34.3417 1.84394 0.614821 -0.709841 -0.343583
2.75488 34.8487 1.83197 0.174475 -0.920421 -0.346721
3.82431 34.9946 1.85804 -0.0143582 -0.839865 -0.542605
4.93174 34.8995 1.92861 -0.12819 -0.756742 -0.640363
6.00427 34.4698 1.90972 -0.555024 -0.672542 -0.489484
6.76953 33.7323 1.76968 -0.709266 -0.451533 -0.54135
6.87843 34.3351 1.23124 -0.448343 -0.445429 -0.774972
6.59437 35.2584 0.982757 -0.458472 -0.224496 -0.859244
6.52871 36.3599 0.869008 -0.44715 -0.0978192 -0.889094
6.48512 37.3695 0.800495 -0.332947 -0.0648614 -0.940712
6.4504 38.4978 0.779953 -0.267794 -0.00433364 -0.963243
6.45562 39.5797 0.813187 -0.225836 0.0351513 -0.973531
6.46071 40.7226 0.839212 -0.214566 0.0119251 -0.976633
6.41824 41.8269 0.844374 -0.194975 -0.0250671 -0.980488
6.43767 42.8445 0.809561 -0.169352 -0.049501 -0.984312
6.44495 43.855 0.741493 -0.156185 -0.0777676 -0.984651
6.44614 44.8536 0.647844 -0.155397 -0.160473 -0.974419
6.33643 45.9054 0.468936 -0.13823 -0.207852 -0.968344
5.38492 46.5895 0.447255 -0.119937 -0.229682 -0.965803
4.29073 46.8807 0.465654 -0.0457896 -0.258542 -0.964883
3.12506 46.8071 0.463222 0.066412 -0.266222 -0.961519
2.12821 46.4168 0.450366 0.115998 -0.229385 -0.966399
1.55557 45.6297 0.54678 0.157074 -0.202423 -0.96651
1.57051 44.6459 0.724263 0.154164 -0.0952401 -0.983441
1.5515 43.5547 0.834315 0.142497 -0.089541 -0.985636
1.56397 42.389 0.911175 0.140158 -0.0448813 -0.989111
1.57781 41.3777 0.94847 0.137774 -0.0047386 -0.990452
1.55484 40.355 0.959015 0.184373 0.0126725 -0.982775
1.5698 39.3346 0.93472 0.167302 0.0424965 -0.984989
1.58388 38.2467 0.902649 0.244259 -0.0137159 -0.969613
1.53115 37.0827 0.933248 0.327175 -0.0433952 -0.943854
1.46587 35.9825 0.898896 0.369189 0.0677502 -0.926881
1.41567 34.9634 0.860636 0.409541 -0.143455 -0.900942
1.22619 34.0776 1.24636 0.563874 -0.62427 -0.540678
1.11937 33.735 1.61869 0.727656 -0.595773 -0.339958
0.395349 33.2164 1.11542 0.70315 -0.529532 -0.474519
0.513586 34.0502 0.474007 0.649603 -0.323273 -0.679545
0.505776 35.1005 0.406365 0.416395 0.134716 -0.898871
0.530692 36.163 0.521006 0.375527 0.0565457 -0.924996
0.572851 37.165 0.578177 0.30867 0.0453658 -0.94906
0.579735 38.2785 0.674274 0.22206 0.106208 -0.969231
0.583776 39.3227 0.756488 0.195054 0.0381474 -0.98005
0.562199 40.334 0.766262 0.207586 -0.00166684 -0.978215
0.583462 41.3802 0.763985 0.19598 -0.00962918 -0.980561
0.574612 42.5389 0.742114 0.176722 -0.0445427 -0.983251
0.566515 43.5986 0.664104 0.189622 -0.103094 -0.976407
0.592106 44.6353 0.537801 0.206078 -0.141936 -0.968152
0.562613 45.7719 0.35408 0.18474 -0.181063 -0.965755
0.821831 46.7276 0.186899 0.15904 -0.238223 -0.9581
1.78823 47.3451 0.173842 0.142672 -0.260842 -0.954781
2.79062 47.7303 0.174516 0.0812763 -0.283553 -0.955506
3.81755 47.9173 0.170391 0.0166127 -0.270535 -0.962346
4.84925 47.7735 0.177416 -0.0658183 -0.291705 -0.954182
5.89071 47.441 0.172094 -0.12908 -0.23091 -0.964322
6.78769 46.9084 0.171277 -0.147656 -0.241287 -0.959155
7.41552 45.9424 0.274261 -0.174689 -0.16719 -0.970176
7.44154 44.8627 0.429131 -0.220919 -0.117714 -0.968162
7.41525 43.6105 0.579629 -0.208837 -0.106316 -0.972154
7.42316 42.6006 0.637518 -0.198962 -0.0227604 -0.979743
7.4372 41.5307 0.627664 -0.216812 0.0151886 -0.976049
7.42949 40.4553 0.606157 -0.234967 0.0223101 -0.971746
7.42928 39.3259 0.571879 -0.234593 0.0364036 -0.971412
7.43138 38.1421 0.496942 -0.271783 0.0634888 -0.960262
7.43216 36.9351 0.418463 -0.341474 0.0265074 -0.939045
7.47138 35.9234 0.434924 -0.471173 -0.107536 -0.873095
7.53888 34.9233 0.565812 -0.516576 -0.197489 -0.830758
7.65727 33.8692 0.561485 -0.784159 -0.0220545 -0.620168
7.66872 32.8298 0.656938 -0.91709 -0.365287 -0.159126
7.55475 32.8377 1.70704 -0.67931 -0.727107 0.0196323
7.45575 32.9852 2.70086 -0.532715 -0.844429 -0.056162
6.56141 33.5339 2.79548 -0.548262 -0.815598 -0.176741
5.61182 34.1391 2.8064 -0.43096 -0.806668 -0.404425
4.58268 34.4614 2.78373 -0.163898 -0.931317 -0.325247
3.48253 34.6406 2.75016 -0.0144405 -0.967959 -0.244706
2.49813 34.4465 2.79972 0.491818 -0.849919 -0.185581
1.71191 33.8093 2.79132 0.672202 -0.679719 -0.293318
0.985201 33.0106 2.81032 0.724528 -0.658684 -0.202963
0.38771 32.3727 2.46124 0.737145 -0.662817 -0.131496
0.392704 32.8984 1.49037 0.738934 -0.50256 -0.448787
0.397483 33.0907 1.25994 0.71439 -0.535039 -0.450242
1.84792 34.6801 1.28573 0.543872 -0.657166 -0.521858
1.96667 34.7392 1.35552 0.594506 -0.670789 -0.443401
1.99445 35.6864 1.09186 0.400891 -0.006187 -0.916105
3.01843 35.8084 1.41538 0.287997 -0.00504894 -0.957618
4.0573 35.8741 1.61945 0.0263088 -0.171114 -0.9849
5.05464 35.8248 1.46214 -0.250516 -0.173939 -0.952359
6.04739 35.7045 1.14518 -0.36206 -0.0739823 -0.929214
6.04188 36.6965 1.05515 -0.373659 -0.0727807 -0.924707
4.99466 36.7567 1.33366 -0.161261 -0.212466 -0.96377
3.78839 36.7761 1.42835 -0.00118204 -0.239185 -0.970973
2.74047 36.7363 1.31641 0.281058 -0.0620567 -0.957682
1.99321 36.6849 1.1183 0.290959 0.0196736 -0.956533
2.09892 37.6649 1.05561 0.208882 -0.111287 -0.971588
3.26051 37.6942 1.22778 0.110688 -0.152838 -0.982033
4.35401 37.6998 1.22753 -0.075523 -0.140886 -0.987141
5.44638 37.6811 1.0702 -0.212585 -0.13878 -0.967237
5.93013 37.6666 0.954788 -0.262648 -0.13878 -0.954859
5.9135 38.6275 0.905183 -0.180268 -0.0166042 -0.983477
4.85996 38.6372 1.07592 -0.152965 -0.0107952 -0.988173
3.84022 38.6416 1.17941 -0.0167514 -0.0384112 -0.999122
2.80976 38.6324 1.08822 0.121732 -0.0123833 -0.992486
2.11186 38.6252 0.995971 0.150916 0.000805166 -0.988546
2.24957 39.5838 1.03991 0.124411 0.026345 -0.991881
3.29087 39.5904 1.14235 0.0779779 0.0111152 -0.996893
4.46279 39.5916 1.13168 -0.100519 -0.00427752 -0.994926
5.48153 39.5877 0.998761 -0.148848 0.0339694 -0.988276
5.78221 39.5866 0.948355 -0.17235 0.0297421 -0.984587
5.93166 40.5435 0.941192 -0.167391 0.0314892 -0.985388
4.91758 40.5464 1.08197 -0.119728 -0.0148498 -0.992696
3.78674 40.5464 1.143 -0.00388414 -0.0197988 -0.999796
2.67257 40.5427 1.10075 0.0537164 -0.0287421 -0.998142
2.06725 40.5404 1.0382 0.127384 -0.023661 -0.991571
2.20136 41.4982 1.0277 0.104392 -0.0137691 -0.994441
3.25911 41.5021 1.10656 0.0540468 -0.0265603 -0.998185
4.32801 41.5037 1.10351 -0.0358542 -0.0274033 -0.998981
5.38299 41.5021 1.00962 -0.125343 -0.0230714 -0.991845
5.88735 41.5009 0.942576 -0.139159 -0.00961956 -0.990223
5.87424 42.4558 0.914024 -0.143092 -0.0360154 -0.989054
4.86768 42.4607 1.03358 -0.101764 -0.0456415 -0.993761
3.86768 42.4629 1.09259 -0.03576 -0.0443042 -0.998378
2.78824 42.4583 1.0417 0.0823128 -0.0446711 -0.995605
2.15314 42.4541 0.98415 0.116041 -0.0443784 -0.992253
2.08558 43.4072 0.908952 0.110209 -0.0766551 -0.990948
3.12721 43.418 1.00298 0.0482666 -0.103922 -0.993414
4.13046 43.4223 1.02695 -0.0307394 -0.0752506 -0.996691
5.17831 43.4164 0.950567 -0.082925 -0.0891472 -0.99256
5.94599 43.4092 0.853177 -0.157402 -0.069039 -0.985118
5.9268 44.3617 0.784466 -0.140866 -0.12184 -0.982503
4.8833 44.372 0.883041 -0.0754702 -0.124885 -0.989297
3.72534 44.3741 0.919072 -0.00167915 -0.126284 -0.991993
2.67372 44.3674 0.876766 0.0513005 -0.126549 -0.990633
2.07643 44.3602 0.827368 0.114831 -0.0920689 -0.989109
2.12497 45.3064 0.688095 0.0725741 -0.182189 -0.980582
3.18678 45.3204 0.771252 0.0525114 -0.148181 -0.987565
4.23668 45.3248 0.789203 -0.0305151 -0.135076 -0.990365
5.29381 45.3164 0.720978 -0.122392 -0.146325 -0.981636
5.85836 45.3078 0.653383 -0.104436 -0.161165 -0.981386
4.79853 46.2619 0.584215 -0.0832945 -0.212336 -0.97364
3.77298 46.2677 0.626535 0.0721057 -0.223456 -0.972043
3.1445 46.2611 0.594816 0.0700649 -0.226036 -0.971596
3.10141 46.2602 0.590701 0.0975533 -0.223603 -0.969786
