1.11651 33.8222 1.69834 0.685543 -0.627147 -0.369753
1.40163 34.6655 1.01855 0.567779 -0.380552 -0.699283
1.45635 35.6981 0.992826 0.35992 0.0700059 -0.930353
1.48259 36.7139 1.04082 0.406582 -0.0157004 -0.913479
1.54763 37.8353 1.00554 0.254171 -0.0836912 -0.96353
1.59342 38.9006 1.00899 0.169281 0.0384569 -0.984817
1.58113 39.9936 1.03864 0.159541 0.0157896 -0.987
1.55397 41.0124 1.03842 0.164795 -0.0218826 -0.986048
1.56811 42.0201 1.01322 0.137126 -0.051164 -0.989196
1.60082 43.1203 0.962263 0.144533 -0.0583903 -0.987737
1.59073 44.157 0.870919 0.154201 -0.107152 -0.982126
1.57188 45.3317 0.69344 0.139295 -0.174483 -0.974758
1.70247 46.3763 0.494768 0.133977 -0.227972 -0.964406
2.54732 46.9047 0.470184 0.112223 -0.246949 -0.962502
3.53847 47.192 0.466117 0.0450156 -0.290125 -0.955906
4.6393 47.1208 0.471962 -0.0647204 -0.267128 -0.961369
5.60106 46.7448 0.472573 -0.129358 -0.246118 -0.960543
6.40305 45.9745 0.531385 -0.153212 -0.192154 -0.969331
6.44412 44.8548 0.728715 -0.157992 -0.112737 -0.980984
6.44331 43.8093 0.836068 -0.165563 -0.0867573 -0.982319
6.43939 42.7828 0.901661 -0.17223 -0.0494287 -0.983816
6.40566 41.7359 0.93905 -0.184923 -0.0248982 -0.982438
6.43215 40.6328 0.929534 -0.205213 0.00715004 -0.97852
6.45558 39.5036 0.894592 -0.213518 0.0330446 -0.976335
6.43476 38.4976 0.873549 -0.226863 -0.012287 -0.973849
6.47195 37.4367 0.899303 -0.349957 -0.0533428 -0.935246
6.54664 36.3677 0.972537 -0.456876 -0.0896509 -0.885001
6.54821 35.2359 1.13662 -0.475446 -0.233434 -0.847689
6.81341 34.2495 1.4535 -0.591481 -0.549656 -0.58994
6.56614 34.0961 1.87704 -0.628276 -0.596781 -0.498518
5.66697 34.7965 1.88865 -0.393249 -0.697791 -0.582577
4.7186 35.0836 1.93345 -0.10775 -0.751422 -0.650965
3.62832 35.1687 1.8807 0.0534831 -0.472155 -0.87986
2.64952 34.977 1.80591 0.315895 -0.769777 -0.538635
1.71181 34.353 1.81301 0.616306 -0.672942 -0.40552
1.20264 33.8542 1.8038 0.685543 -0.627147 -0.369753
1.48867 33.6862 2.80798 0.691837 -0.65773 -0.297913
0.820121 32.9397 2.83463 0.728216 -0.656789 -0.195779
0.361446 32.5235 2.25471 0.793616 -0.565296 -0.224568
0.388738 33.1105 1.44165 0.731321 -0.536762 -0.418284
0.471525 33.9174 0.644778 0.577867 -0.522177 -0.615412
0.542417 34.988 0.523309 0.404868 0.137879 -0.90392
0.543729 36.0234 0.63538 0.415033 0.0351807 -0.908992
0.582989 37.025 0.684567 0.333449 0.0399523 -0.941511
0.587854 38.155 0.755091 0.253879 0.0796858 -0.963666
0.599232 39.3646 0.851169 0.179269 0.038259 -0.983001
0.585791 40.3918 0.857501 0.192767 -0.00403155 -0.981236
0.584879 41.4301 0.84984 0.196848 -0.00903256 -0.980392
0.58239 42.4913 0.835717 0.172855 -0.037264 -0.984238
0.589583 43.5786 0.758319 0.173903 -0.101278 -0.979541
0.580747 44.6007 0.628084 0.203546 -0.136881 -0.969444
0.578867 45.672 0.464348 0.193703 -0.16474 -0.967118
0.625162 46.7859 0.226795 0.149191 -0.276241 -0.949438
1.48104 47.4429 0.191373 0.148324 -0.248693 -0.957158
2.52531 47.9533 0.175679 0.0805432 -0.277103 -0.957377
3.6464 48.1999 0.174524 0.0298588 -0.305005 -0.951655
4.65758 48.1032 0.182442 -0.0524266 -0.28301 -0.957683
5.72081 47.7912 0.183742 -0.104188 -0.28338 -0.953324
6.59188 47.2842 0.194251 -0.163305 -0.27282 -0.948104
7.3739 46.5845 0.233687 -0.172017 -0.235317 -0.956575
7.43568 45.5312 0.428928 -0.220082 -0.142546 -0.965003
7.4275 44.3564 0.585038 -0.22183 -0.109047 -0.968931
7.414 43.2814 0.692942 -0.203247 -0.0816739 -0.975715
7.40353 42.1387 0.731244 -0.216706 0.00823169 -0.976202
7.42589 40.9693 0.70517 -0.231497 0.0246541 -0.972523
7.42956 39.8571 0.678623 -0.237571 0.0211282 -0.97114
7.43433 38.8274 0.634091 -0.248856 0.0562345 -0.966868
7.42824 37.7632 0.56478 -0.293097 0.0583547 -0.9543
7.4503 36.6372 0.514016 -0.372401 -0.00133679 -0.928057
7.46541 35.6036 0.606113 -0.427556 -0.196497 -0.879971
7.54504 34.6153 0.813617 -0.529075 -0.258993 -0.808086
7.65699 33.5474 0.822731 -0.790133 -0.108526 -0.593921
7.61448 32.9446 1.33803 -0.725883 -0.687014 -0.0332332
7.51997 33.059 2.34493 -0.526486 -0.849003 0.0447282
6.91202 33.3645 2.78695 -0.484587 -0.863213 -0.133475
6.04075 33.9714 2.803 -0.599944 -0.70234 -0.380994
5.10632 34.4617 2.77268 -0.240559 -0.848255 -0.4718
4.10574 34.6655 2.75286 -0.18464 -0.939708 -0.287849
3.07497 34.7314 2.72061 0.165971 -0.953799 -0.240171
2.1302 34.2962 2.74157 0.590792 -0.750401 -0.296416
1.50144 33.7002 2.80672 0.691841 -0.657725 -0.297916
2.00786 35.6283 1.22578 0.424582 -0.0249793 -0.905045
3.13584 35.7712 1.55992 0.247843 -0.0430641 -0.967843
4.1533 35.8306 1.73715 -0.00427706 -0.247689 -0.96883
5.1362 35.7656 1.54816 -0.275085 -0.122225 -0.953619
6.06935 35.6416 1.25788 -0.370944 -0.0779271 -0.92538
6.04743 36.5894 1.17132 -0.327189 -0.112068 -0.93829
5.04432 36.6625 1.45435 -0.210703 -0.216252 -0.953331
4.03311 36.696 1.58857 -0.0331243 -0.291159 -0.956101
3.03204 36.6573 1.50524 0.193159 -0.0275074 -0.980782
2.0448 36.5839 1.23704 0.292641 0.00993513 -0.956171
1.98831 36.5796 1.21978 0.29144 0.0114214 -0.956521
2.11193 37.519 1.18056 0.233155 -0.0975088 -0.967539
3.2754 37.5543 1.34507 0.0968572 -0.190409 -0.976915
4.32411 37.5626 1.35021 -0.0398186 -0.216704 -0.975425
5.33649 37.5435 1.21711 -0.191583 -0.171849 -0.966315
5.83552 37.5275 1.10929 -0.237787 -0.174889 -0.955443
5.73653 38.4396 1.02501 -0.168534 -0.0122168 -0.98562
4.74704 38.452 1.19028 -0.173948 -0.0173355 -0.984602
3.64682 38.4547 1.26059 0.0464527 -0.0313893 -0.998427
2.58995 38.4406 1.15086 0.136471 -0.00449012 -0.990634
2.2502 38.4363 1.10425 0.155044 -0.0607451 -0.986038
2.10264 39.3493 1.10467 0.126259 0.0365867 -0.991322
3.2104 39.3576 1.22403 0.0989523 0.0148221 -0.994982
4.2121 39.3612 1.23405 -0.0471918 0.0247651 -0.998579
5.27333 39.356 1.10999 -0.155727 0.0251075 -0.987481
5.91458 39.3523 1.00684 -0.183896 0.0232513 -0.982671
5.7837 40.2671 1.05153 -0.15715 0.0308509 -0.987093
4.73394 40.2706 1.18966 -0.113317 -0.00716804 -0.993533
3.5875 40.271 1.23571 0.0180204 -0.00895691 -0.999797
2.44976 40.266 1.16595 0.105089 0.0151791 -0.994347
2.08053 40.2642 1.12258 0.123234 0.0191854 -0.992192
2.16058 41.1782 1.11857 0.107529 -0.0124428 -0.994124
3.26402 41.1826 1.20482 0.0526996 -0.0406077 -0.997784
4.33136 41.1843 1.20252 -0.0329834 -0.0202095 -0.999252
5.32762 41.1822 1.10854 -0.110421 -0.0156807 -0.993761
5.78844 41.181 1.05332 -0.163014 -0.0182873 -0.986454
5.73226 42.0938 1.0368 -0.141768 -0.0278993 -0.989507
4.69376 42.098 1.15128 -0.0928616 -0.0244616 -0.995379
3.46709 42.0981 1.1877 0.0250419 -0.0274521 -0.999309
2.45324 42.0933 1.11518 0.086054 -0.0526172 -0.9949
2.2221 42.0918 1.09299 0.0985441 -0.0609382 -0.993265
2.20013 43.0032 1.0436 0.104042 -0.0709426 -0.99204
3.25415 43.0115 1.13397 0.0587487 -0.0926341 -0.993966
4.41875 43.0135 1.14455 -0.0628548 -0.0942351 -0.993564
5.55699 43.0064 1.02267 -0.114499 -0.0498296 -0.992173
5.85561 43.0038 0.980545 -0.143515 -0.0646598 -0.987534
5.78857 43.9145 0.928723 -0.124766 -0.0617627 -0.990262
4.69421 43.9246 1.03223 -0.0732671 -0.0963328 -0.992649
3.61826 43.9256 1.05816 0.0136132 -0.106098 -0.994262
2.5106 43.9163 0.9975 0.104034 -0.104157 -0.989105
2.15634 43.9119 0.961505 0.0942344 -0.0815667 -0.992203
2.19386 44.8202 0.86143 0.102082 -0.132165 -0.985957
3.2238 44.8312 0.93026 0.0500398 -0.120739 -0.991422
4.24383 44.8332 0.937795 -0.0245846 -0.130639 -0.991125
5.26275 44.8281 0.882386 -0.0958542 -0.157765 -0.982813
5.92061 44.8191 0.806115 -0.125074 -0.13575 -0.982817
5.89353 45.7191 0.660971 -0.134982 -0.200274 -0.970397
4.83217 45.7357 0.775016 -0.0828044 -0.191512 -0.977991
3.79152 45.7421 0.816821 0.0416423 -0.131308 -0.990467
2.71865 45.7293 0.756977 0.0907171 -0.174603 -0.980451
2.15374 45.7192 0.702749 0.119829 -0.217821 -0.968605
3.37219 46.6331 0.611086 0.0883266 -0.247123 -0.96495
4.41158 46.6358 0.617211 -0.0615263 -0.255901 -0.964743
4.50185 46.6348 0.611188 -0.0672282 -0.254375 -0.964766
