1.1575 33.9776 1.73876 0.641528 -0.682223 -0.350734
1.95634 34.6558 1.82919 0.578757 -0.682827 -0.445724
2.85427 35.1056 1.82183 0.217261 -0.827644 -0.517496
3.83827 35.3039 1.94085 0.047131 -0.447604 -0.892385
4.97992 35.153 1.94753 -0.18285 -0.764112 -0.61823
5.96993 34.7211 1.92377 -0.515202 -0.687977 -0.511131
6.76528 34.0459 1.83661 -0.656477 -0.556627 -0.505389
6.60835 34.7848 1.41661 -0.446779 -0.35377 -0.821727
6.52986 35.7481 1.15482 -0.441648 -0.111563 -0.889706
6.53013 36.8758 1.04534 -0.400704 -0.0654355 -0.913868
6.46088 37.9646 0.96815 -0.328646 -0.0837704 -0.939951
6.43536 38.9784 0.971135 -0.233609 0.0315147 -0.971721
6.46022 40.0179 1.00281 -0.221309 0.0286716 -0.974776
6.47041 41.1129 1.01564 -0.197807 0.017466 -0.980085
6.44401 42.1225 1.00896 -0.165593 -0.0212469 -0.985962
6.45109 43.2809 0.957507 -0.166756 -0.0709964 -0.983439
6.44419 44.3124 0.876949 -0.15465 -0.088436 -0.984003
6.42296 45.3389 0.745728 -0.165752 -0.190259 -0.96764
6.33384 46.3579 0.551937 -0.152475 -0.233486 -0.960331
5.52361 47.0355 0.497743 -0.123734 -0.250324 -0.960222
4.50132 47.4499 0.47213 -0.058496 -0.275146 -0.959522
3.50579 47.4608 0.476406 0.0479458 -0.278826 -0.959102
2.47719 47.1158 0.496714 0.0897727 -0.239745 -0.966645
1.63125 46.4506 0.558593 0.132696 -0.228087 -0.964556
1.56321 45.3666 0.777201 0.149311 -0.188382 -0.970679
1.55752 44.3566 0.92333 0.165155 -0.0940358 -0.981775
1.57278 43.2276 1.03805 0.147325 -0.0739829 -0.986254
1.55209 42.2173 1.08925 0.15339 -0.0357542 -0.987493
1.55884 41.1218 1.12412 0.168157 -0.0273447 -0.985381
1.60242 40.0331 1.13561 0.148028 0.0283776 -0.98849
1.57891 38.8834 1.0974 0.185338 0.0332705 -0.982077
1.543 37.7572 1.11338 0.314938 -0.0634855 -0.946987
1.4654 36.6552 1.14381 0.376641 -0.0159339 -0.926114
1.46781 35.5527 1.11666 0.399713 0.0282972 -0.916203
1.3772 34.5372 1.19184 0.698378 -0.481176 -0.510673
1.21468 34.1049 1.59578 0.641528 -0.682223 -0.350734
0.425771 33.6335 1.08743 0.642496 -0.534478 -0.549119
0.363254 32.8484 1.94237 0.772175 -0.498939 -0.393454
0.631791 32.8485 2.79437 0.746228 -0.642364 -0.17468
1.30307 33.6088 2.81001 0.681314 -0.663945 -0.308201
2.04356 34.3007 2.78671 0.584804 -0.783602 -0.209696
2.94898 34.7668 2.74638 0.279352 -0.912643 -0.298403
4.08287 34.7691 2.76619 -0.118848 -0.922876 -0.3663
5.1396 34.5704 2.79592 -0.240098 -0.85132 -0.457576
6.17096 33.9835 2.8295 -0.596446 -0.700948 -0.391055
7.02122 33.3811 2.78615 -0.527475 -0.830135 -0.156631
7.54332 33.1253 2.22456 -0.526579 -0.849771 0.0245725
7.72884 33.1638 1.24191 -0.833569 -0.336042 -0.433303
7.59214 34.1226 1.05579 -0.692996 -0.0671317 -0.717809
7.47016 35.1803 0.838949 -0.433161 -0.251635 -0.865478
7.4639 36.1757 0.628047 -0.422884 -0.061671 -0.904083
7.4389 37.3469 0.625297 -0.318182 0.0580234 -0.946252
7.41736 38.4471 0.697701 -0.260072 0.0768319 -0.962525
7.42952 39.4994 0.757447 -0.229409 0.0369902 -0.972616
7.4434 40.5213 0.777915 -0.2372 0.0212197 -0.971228
7.43932 41.5645 0.803175 -0.228017 0.0243446 -0.97335
7.43508 42.7127 0.804584 -0.209532 -0.0277573 -0.977393
7.42844 43.786 0.734125 -0.198235 -0.0922645 -0.975802
7.42127 44.8435 0.616201 -0.223482 -0.117538 -0.967595
7.43031 45.8786 0.459147 -0.187455 -0.154921 -0.969915
7.33994 46.8699 0.257018 -0.192387 -0.271409 -0.94304
6.47296 47.5991 0.206219 -0.15458 -0.293955 -0.943237
5.60355 48.107 0.194235 -0.078495 -0.284946 -0.955257
4.63774 48.4272 0.171613 -0.0592164 -0.296884 -0.953076
3.57949 48.4745 0.173337 0.0412707 -0.297066 -0.953965
2.53792 48.2061 0.189593 0.0761106 -0.289936 -0.954015
1.61716 47.7513 0.209707 0.155967 -0.30484 -0.939544
0.744105 47.1636 0.232252 0.186786 -0.296856 -0.936461
0.567213 46.1417 0.464765 0.168653 -0.200158 -0.965139
0.58249 45.0335 0.653943 0.18586 -0.135964 -0.973124
0.591287 43.8223 0.815353 0.184047 -0.110642 -0.97661
0.581062 42.7295 0.910632 0.183871 -0.0520934 -0.981569
0.57522 41.5762 0.934473 0.195779 -0.00709912 -0.980609
0.58694 40.4592 0.945237 0.200759 -0.00832912 -0.979605
0.595579 39.4196 0.939396 0.171652 0.0204892 -0.984902
0.564131 38.3873 0.855413 0.227023 0.0737895 -0.970665
0.553958 37.308 0.767699 0.326041 0.0407953 -0.94243
0.540126 36.2376 0.750889 0.423101 0.00879885 -0.90604
0.549412 35.2307 0.673472 0.408247 0.131609 -0.903278
0.498798 34.2033 0.668866 0.595467 -0.378265 -0.708756
0.43452 33.7978 0.937715 0.642499 -0.534476 -0.549117
2.01979 35.7955 1.33864 0.371258 -0.00881565 -0.928488
2.98611 35.9148 1.64681 0.240597 -0.0108661 -0.970564
3.98498 35.9793 1.80517 -0.00857057 -0.166972 -0.985924
5.00479 35.9337 1.67686 -0.221301 -0.139189 -0.965221
5.98431 35.8185 1.38903 -0.328289 -0.126182 -0.936111
5.99181 35.8175 1.38625 -0.398477 -0.123615 -0.90881
5.98226 36.7652 1.29125 -0.357617 -0.100749 -0.928418
4.92592 36.8406 1.57625 -0.189418 -0.260299 -0.946766
3.87458 36.857 1.65078 0.00274698 -0.244399 -0.969671
2.71411 36.8088 1.52171 0.196151 -0.135667 -0.971143
1.96094 36.7504 1.32431 0.26839 0.00965406 -0.963262
2.05981 37.6996 1.24871 0.211797 -0.108978 -0.971219
3.08456 37.7305 1.39992 0.0922475 -0.204753 -0.974457
4.08828 37.7419 1.43488 -0.100278 -0.179856 -0.978568
5.08982 37.7268 1.32195 -0.143484 -0.192064 -0.970837
5.89136 37.7053 1.16821 -0.249283 -0.186326 -0.950337
5.9138 38.6311 1.07985 -0.187442 -0.0293373 -0.981837
4.9269 38.6431 1.2489 -0.159785 -0.0137041 -0.987057
3.92917 38.6481 1.35302 0.00436206 -0.0388335 -0.999236
2.90114 38.6394 1.27649 0.103025 -0.0297843 -0.994233
2.1148 38.6306 1.18069 0.145833 0.00405754 -0.989301
2.11044 39.5574 1.1991 0.134824 0.0227324 -0.990609
3.11498 39.5641 1.30433 0.0974412 0.00979789 -0.995193
4.26122 39.5668 1.32333 -0.0580025 -0.00257131 -0.998313
5.28128 39.5631 1.20574 -0.146467 0.0298041 -0.988766
5.91897 39.5592 1.09877 -0.189685 0.0254976 -0.981514
5.78063 40.4871 1.1434 -0.162207 -0.0115427 -0.986689
4.578 40.492 1.28903 -0.101028 -0.00426033 -0.994874
3.51694 40.4913 1.32224 0.0205307 -0.0244581 -0.99949
2.47329 40.4873 1.25952 0.0966813 -0.0224171 -0.995063
2.22305 40.4857 1.22675 0.137286 0.00139361 -0.99053
2.06515 41.4112 1.18628 0.131904 -0.0365825 -0.990587
3.30157 41.4174 1.28872 0.0494172 -0.0240905 -0.998488
4.35561 41.4188 1.28015 -0.0295198 -0.013907 -0.999467
5.42229 41.4152 1.18057 -0.114886 -0.0329452 -0.992832
5.88486 41.4133 1.1201 -0.138361 -0.0252897 -0.990059
5.9362 42.3383 1.08351 -0.142718 -0.0327632 -0.989221
4.81353 42.3436 1.21956 -0.107824 -0.0264758 -0.993817
3.71028 42.3457 1.27649 -0.0134564 -0.0547709 -0.998408
2.66979 42.3413 1.20974 0.089739 -0.0376406 -0.995254
2.06113 42.3369 1.1501 0.129637 -0.0503001 -0.990285
2.19889 43.2615 1.1095 0.110285 -0.082108 -0.990503
3.23021 43.2705 1.19727 0.0337774 -0.100251 -0.994389
4.25535 43.2729 1.21035 -0.0401657 -0.0934522 -0.994813
5.38345 43.2664 1.11108 -0.108671 -0.0704396 -0.991579
5.89366 43.2622 1.04753 -0.142933 -0.0704409 -0.987222
5.86649 44.1846 0.975931 -0.114576 -0.10851 -0.98747
4.74051 44.1947 1.08316 -0.0526696 -0.113293 -0.992165
3.68006 44.196 1.11429 0.0366591 -0.112254 -0.993003
2.53105 44.1879 1.05637 0.0784695 -0.123783 -0.989202
2.07457 44.1824 1.01566 0.114402 -0.119522 -0.986218
2.24049 45.1025 0.908912 0.0957886 -0.155324 -0.983208
3.44827 45.1166 0.988525 0.0284072 -0.135176 -0.990414
4.45181 45.1182 0.984404 -0.0526811 -0.134214 -0.989551
5.57593 45.1082 0.902605 -0.0776977 -0.140753 -0.986991
5.8261 45.1042 0.871196 -0.13297 -0.138347 -0.981417
5.85109 46.0123 0.695884 -0.128308 -0.192738 -0.972825
4.85659 46.0325 0.811912 -0.0938907 -0.195899 -0.976119
3.70754 46.0361 0.848614 0.00646074 -0.188645 -0.982024
2.62641 46.021 0.775798 0.103456 -0.195034 -0.975325
2.14089 46.0101 0.721956 0.123707 -0.199825 -0.971991
3.57643 46.9373 0.62532 0.0326418 -0.247793 -0.968263
4.27227 46.9388 0.626822 -0.0472182 -0.26498 -0.963097
4.35741 46.9379 0.622881 -0.0472197 -0.264979 -0.963097
