1.23209 34.1486 1.77398 0.630321 -0.690092 -0.355624
2.01136 34.7923 1.80949 0.502889 -0.759828 -0.411758
2.92535 35.2717 1.85795 0.253373 -0.322152 -0.912152
3.92881 35.4484 2.00805 0.0414994 -0.347013 -0.919147
4.9277 35.2845 1.97446 -0.2011 -0.372259 -0.906056
5.92473 34.8587 1.94935 -0.519546 -0.596279 -0.611984
6.65069 34.456 1.73055 -0.559948 -0.566248 -0.604832
6.5518 35.472 1.30732 -0.468646 -0.254571 -0.845911
6.5641 36.5906 1.16784 -0.424006 -0.0801622 -0.901247
6.48429 37.6239 1.09287 -0.35985 -0.100924 -0.927536
6.45527 38.7523 1.05743 -0.2495 0.00783294 -0.968343
6.44143 39.7767 1.08698 -0.19947 0.0228608 -0.979637
6.44027 40.8226 1.10867 -0.222738 0.00638361 -0.974841
6.41378 41.8262 1.10793 -0.184411 -0.0325191 -0.982311
6.42197 43.0174 1.06637 -0.158236 -0.0361098 -0.986741
6.43519 44.1605 0.980127 -0.159253 -0.0970393 -0.982369
6.45667 45.2169 0.840492 -0.177547 -0.166165 -0.969983
6.39905 46.3389 0.637814 -0.147231 -0.223018 -0.963632
5.75999 47.1649 0.524421 -0.136964 -0.236683 -0.961805
4.66211 47.6596 0.49226 -0.055824 -0.285253 -0.956825
3.59555 47.7335 0.486425 0.0111562 -0.302432 -0.953067
2.50598 47.3726 0.526401 0.0868318 -0.256764 -0.962232
1.68872 46.777 0.578191 0.126657 -0.248747 -0.960222
1.54614 45.6505 0.804707 0.129597 -0.188097 -0.973554
1.5536 44.429 1.00706 0.149701 -0.14768 -0.977558
1.59582 43.4112 1.11275 0.117075 -0.0892066 -0.989088
1.57886 42.3172 1.17522 0.13354 -0.0498728 -0.98975
1.57352 41.2607 1.21239 0.162158 -0.020666 -0.986492
1.56741 40.2592 1.22291 0.168665 0.00897903 -0.985633
1.5643 39.2252 1.19683 0.173903 0.0370741 -0.984065
1.58055 38.2051 1.19384 0.259443 -0.0543188 -0.96423
1.50832 37.1879 1.24384 0.325072 -0.048356 -0.944452
1.46169 36.1493 1.25644 0.354534 0.0402252 -0.934177
1.44888 35.1343 1.23109 0.411313 -0.0615876 -0.909411
1.24808 34.1863 1.72905 0.630319 -0.690097 -0.355619
0.429104 33.6849 1.23382 0.658401 -0.54679 -0.516484
0.376333 33.0038 1.96896 0.780057 -0.495329 -0.377508
0.658645 33.0072 2.82196 0.780696 -0.606822 -0.149264
1.39986 33.8342 2.78982 0.665127 -0.687086 -0.290538
2.15234 34.4947 2.75307 0.568036 -0.774794 -0.27259
3.18794 34.9148 2.73257 0.101411 -0.954387 -0.265353
4.23797 34.8461 2.78214 -0.164609 -0.907556 -0.384043
5.30845 34.6025 2.7997 -0.303486 -0.828878 -0.469955
6.29538 33.9946 2.8145 -0.604136 -0.697289 -0.384095
7.11355 33.4145 2.76843 -0.500737 -0.859739 -0.0980294
7.57836 33.2655 2.00598 -0.672508 -0.73866 -0.0459786
7.59313 33.7008 1.32171 -0.759622 -0.154523 -0.626258
7.47297 34.6786 1.12977 -0.38459 -0.300759 -0.872659
7.47625 35.6781 0.824304 -0.451901 -0.166425 -0.876212
7.44406 36.8256 0.703581 -0.387902 -0.00829638 -0.920164
7.42999 37.8509 0.745192 -0.286928 0.0643863 -0.955762
7.41972 38.9627 0.821365 -0.255723 0.0586055 -0.964972
7.4079 40.0956 0.864067 -0.240527 0.021482 -0.970404
7.4141 41.2339 0.886868 -0.232234 0.0204619 -0.972444
7.4186 42.3502 0.903402 -0.201961 0.007765 -0.979363
7.40583 43.3688 0.863568 -0.186146 -0.0718782 -0.979875
7.42203 44.4829 0.746249 -0.216612 -0.107887 -0.970222
7.42933 45.576 0.603932 -0.217463 -0.13926 -0.966083
7.37957 46.578 0.42134 -0.163671 -0.233059 -0.958286
7.00557 47.4917 0.23047 -0.196373 -0.304158 -0.932154
6.06222 48.1288 0.213796 -0.148845 -0.327561 -0.932869
4.96781 48.5839 0.190927 -0.0887275 -0.299206 -0.949919
3.96348 48.8211 0.165093 0.00646255 -0.300433 -0.953781
2.93937 48.5761 0.18895 0.0673659 -0.315281 -0.946604
1.89406 48.1503 0.214871 0.118512 -0.301388 -0.946073
1.01023 47.6115 0.229522 0.189887 -0.315118 -0.929862
0.609764 46.6342 0.451699 0.160606 -0.28596 -0.944687
0.569491 45.631 0.646942 0.191042 -0.161973 -0.968106
0.576844 44.5917 0.804685 0.201593 -0.129729 -0.970807
0.59764 43.5204 0.939339 0.172732 -0.113273 -0.978434
0.586259 42.453 1.01101 0.162749 -0.0290453 -0.98624
0.59106 41.3723 1.02604 0.19491 -0.00670901 -0.980798
0.578351 40.1836 1.03407 0.194753 0.00567384 -0.980836
0.584531 39.0489 1.00888 0.199786 0.0696645 -0.977191
0.59719 37.931 0.921061 0.308114 0.0375993 -0.950606
0.549217 36.9104 0.864162 0.392785 -0.00534699 -0.919615
0.518553 35.8601 0.852034 0.382786 0.0416209 -0.920134
0.523418 34.7059 0.754892 0.523362 0.00202361 -0.852108
0.431428 33.7897 1.13367 0.661003 -0.526194 -0.534972
2.03288 35.9601 1.45136 0.336493 0.0255479 -0.941339
3.10493 36.0906 1.77653 0.196338 0.0095092 -0.98049
4.25702 36.1359 1.88374 -0.0845687 -0.133371 -0.987451
5.31933 36.0681 1.68802 -0.260713 -0.0905387 -0.961162
6.07043 35.9679 1.44207 -0.393178 -0.0975425 -0.914274
6.05234 36.9362 1.35133 -0.33309 -0.184712 -0.924626
4.94419 37.0042 1.61883 -0.173916 -0.175812 -0.968939
3.93798 37.0268 1.71796 -0.0118047 -0.295014 -0.95542
2.89161 36.9912 1.62998 0.14196 -0.179341 -0.973491
1.98579 36.9312 1.42762 0.231079 -0.127723 -0.964515
2.07427 37.8848 1.32338 0.181142 -0.117372 -0.976428
3.12998 37.9114 1.46692 0.120068 -0.186526 -0.975085
4.19609 37.9217 1.50147 -0.0714213 -0.187644 -0.979637
5.26107 37.9046 1.37404 -0.1666 -0.177978 -0.969829
5.96325 37.8848 1.23191 -0.245654 -0.124546 -0.961323
5.92994 38.8226 1.17286 -0.187077 -0.0184615 -0.982172
4.80868 38.8369 1.35672 -0.168547 -0.0434954 -0.984733
3.68323 38.8399 1.43406 0.0336669 -0.052197 -0.998069
2.67821 38.8302 1.33827 0.105766 0.0150945 -0.994276
2.15726 38.8243 1.27871 0.133105 0.0224765 -0.990847
2.18226 39.7619 1.30193 0.136112 0.0182797 -0.990525
3.33989 39.7683 1.41389 0.0472811 0.0227326 -0.998623
4.34185 39.7706 1.41697 -0.0590173 -0.0121704 -0.998183
5.49696 39.7642 1.26454 -0.152629 0.0229643 -0.988017
5.93144 39.7615 1.18893 -0.187605 0.01628 -0.98211
5.85698 40.6999 1.21489 -0.162743 -0.00493439 -0.986656
4.8007 40.704 1.35503 -0.0880295 -0.0156485 -0.995995
3.75991 40.7056 1.40701 -0.00493825 -0.033161 -0.999438
2.74757 40.7019 1.3608 0.0743621 -0.0196409 -0.997038
2.16032 40.6988 1.30421 0.121599 -0.0229604 -0.992314
2.27874 41.6351 1.28988 0.092583 -0.0294882 -0.995268
3.47251 41.6398 1.37551 0.0248555 -0.0297566 -0.999248
4.56014 41.6404 1.34622 -0.052297 -0.0345632 -0.998033
5.735 41.6367 1.2211 -0.117422 -0.0184774 -0.99291
5.88616 41.6361 1.19903 -0.14955 -0.00536175 -0.98874
5.90797 42.5701 1.1649 -0.155157 -0.0455549 -0.986839
4.898 42.5766 1.28771 -0.0936373 -0.0236366 -0.995326
3.75119 42.5787 1.34571 0.0448731 -0.055525 -0.997448
2.72287 42.5747 1.2924 0.0918503 -0.0510634 -0.994463
2.23039 42.5705 1.24365 0.106065 -0.0499051 -0.993106
2.10213 43.5024 1.16583 0.1238 -0.0908371 -0.988141
3.24299 43.5126 1.25671 0.0613848 -0.0955158 -0.993533
4.40674 43.5154 1.26602 -0.0493783 -0.0968126 -0.994077
5.54942 43.5071 1.16371 -0.124178 -0.0679454 -0.989931
5.88187 43.5035 1.1215 -0.146042 -0.0863253 -0.985505
5.78621 44.4351 1.04969 -0.130288 -0.139654 -0.981592
4.69039 44.4453 1.14256 -0.0573053 -0.112988 -0.991942
3.56737 44.4471 1.16531 0.0254433 -0.116775 -0.992832
2.55165 44.4387 1.11334 0.0636993 -0.117715 -0.991002
2.1931 44.4343 1.08108 0.110051 -0.116523 -0.987072
2.05388 45.3602 0.939019 0.13757 -0.196931 -0.970718
3.10164 45.3751 1.02321 0.055708 -0.154191 -0.986469
4.108 45.3779 1.03907 -0.0388548 -0.14266 -0.989009
5.20274 45.3702 0.979118 -0.0845344 -0.165856 -0.98252
5.95122 45.3593 0.905164 -0.144241 -0.194403 -0.970259
5.87226 46.2769 0.727835 -0.140168 -0.205674 -0.96853
4.82532 46.2973 0.835796 -0.101085 -0.205739 -0.973372
3.71458 46.3044 0.880656 0.0102649 -0.23578 -0.971752
2.71006 46.2906 0.82081 0.105653 -0.247911 -0.963005
2.12569 46.2765 0.755251 0.128457 -0.214844 -0.968164
3.51736 47.2112 0.643221 0.0265796 -0.27269 -0.961735
4.3418 47.2118 0.638594 -0.013839 -0.263782 -0.964483
4.41231 47.2119 0.638139 -0.033146 -0.27726 -0.960223
