1.26515 34.383 1.66198 0.638266 -0.569615 -0.507571
1.49207 35.4251 1.34874 0.418392 -0.0188117 -0.904413
1.48625 36.4819 1.37976 0.375059 0.022824 -0.926717
1.55074 37.5017 1.32793 0.293116 -0.0936786 -0.951477
1.58731 38.5192 1.27744 0.19572 0.00118695 -0.980659
1.57912 39.542 1.30031 0.144366 0.0340594 -0.988938
1.54618 40.6872 1.30127 0.170565 -0.0212769 -0.985117
1.55539 41.7502 1.28304 0.152475 -0.0308846 -0.987647
1.56424 42.7777 1.23919 0.147326 -0.0549165 -0.987429
1.55965 43.9019 1.14312 0.126774 -0.100173 -0.986861
1.55334 44.9154 1.02692 0.174298 -0.153537 -0.972649
1.56129 45.9023 0.848644 0.125852 -0.195789 -0.972537
1.61409 46.928 0.617774 0.135277 -0.25482 -0.957479
2.35525 47.5523 0.543749 0.0890987 -0.287442 -0.953645
3.35839 47.9268 0.507039 0.0340049 -0.284747 -0.957999
4.4317 47.9622 0.49926 -0.0330781 -0.287045 -0.957346
5.40789 47.6105 0.536868 -0.119782 -0.280797 -0.952262
6.25092 47.081 0.571936 -0.133825 -0.241729 -0.961071
6.43467 46.0594 0.782727 -0.136405 -0.19345 -0.971582
6.46335 44.948 0.967998 -0.179562 -0.133288 -0.974632
6.44591 43.9219 1.08293 -0.172576 -0.0844779 -0.981323
6.43212 42.8805 1.15787 -0.169482 -0.058728 -0.983782
6.42084 41.8677 1.1917 -0.181122 -0.025626 -0.983127
6.45768 40.7269 1.19132 -0.22308 0.00862776 -0.974762
6.42007 39.6839 1.17703 -0.211963 0.0194897 -0.977083
6.44136 38.6022 1.14781 -0.23463 0.0035881 -0.972075
6.50906 37.4981 1.19802 -0.366742 -0.125046 -0.921881
6.56836 36.4528 1.27849 -0.431763 -0.084989 -0.89796
6.54829 35.435 1.44205 -0.468726 -0.217291 -0.855364
6.40918 34.6451 1.90351 -0.549884 -0.586623 -0.592594
5.47133 35.2729 1.98847 -0.408983 -0.51486 -0.733031
4.51596 35.5782 2.08856 -0.220579 -0.391684 -0.893047
3.46132 35.5916 2.03685 0.339027 -0.313676 -0.886211
2.3674 35.1176 1.85341 0.535975 -0.710385 -0.456163
1.52421 34.5402 1.85589 0.603098 -0.641784 -0.463726
1.33239 34.3406 1.83175 0.67932 -0.602203 -0.419375
1.55434 34.083 2.78177 0.636581 -0.708243 -0.305216
2.4974 34.7641 2.75371 0.430546 -0.853065 -0.294805
3.58941 35.0012 2.73508 0.0071805 -0.94435 -0.328863
4.66007 34.8888 2.7967 -0.133186 -0.889815 -0.436452
5.70872 34.5376 2.787 -0.457081 -0.746735 -0.483181
6.58414 33.8913 2.79825 -0.525804 -0.762266 -0.377468
7.45578 33.3191 2.66204 -0.505542 -0.853749 -0.12438
7.59435 33.5346 1.61902 -0.814584 -0.485658 -0.315395
7.46564 34.511 1.32148 -0.381411 -0.306435 -0.871829
7.45123 35.4807 0.982412 -0.440428 -0.259379 -0.857521
7.46268 36.506 0.827791 -0.432388 -0.0574987 -0.899814
7.43047 37.5709 0.831328 -0.335182 0.0209907 -0.941914
7.41134 38.5874 0.893993 -0.269075 0.0648736 -0.960647
7.40375 39.6295 0.94245 -0.238208 0.0299014 -0.970752
7.42169 40.7743 0.963145 -0.238527 0.0189531 -0.970951
7.40672 41.8 0.987202 -0.210972 0.0159207 -0.977217
7.40481 42.934 0.975394 -0.208867 -0.0393213 -0.977153
7.42037 44.0297 0.882344 -0.215314 -0.105945 -0.970781
7.43718 45.1144 0.755645 -0.225861 -0.118688 -0.966893
7.42058 46.1226 0.59781 -0.167956 -0.185247 -0.968217
7.40765 47.1242 0.355544 -0.190475 -0.260835 -0.946406
6.76705 47.9431 0.223599 -0.204043 -0.294425 -0.933636
5.89723 48.4545 0.216563 -0.137289 -0.32466 -0.935514
4.92478 48.8485 0.197449 -0.069332 -0.299483 -0.951574
3.9078 49.0814 0.172848 0.00733581 -0.300219 -0.953842
2.91578 48.8202 0.200225 0.0783922 -0.306118 -0.948679
1.89903 48.402 0.218015 0.163552 -0.31444 -0.935082
0.856707 47.7897 0.227665 0.186021 -0.309554 -0.932508
0.593805 46.8924 0.457748 0.158665 -0.289669 -0.943884
0.578644 45.9021 0.690972 0.182056 -0.180585 -0.966416
0.5845 44.8473 0.857059 0.197119 -0.143135 -0.969875
0.582562 43.8423 0.985326 0.1812 -0.112394 -0.976996
0.572195 42.7266 1.08519 0.179676 -0.0394931 -0.982891
0.575991 41.6311 1.10707 0.193537 -0.00757838 -0.981049
0.568247 40.5066 1.11628 0.204388 -0.00924457 -0.978846
0.587101 39.4779 1.12043 0.172124 0.0286967 -0.984513
0.586803 38.4338 1.04385 0.224423 0.0906085 -0.97027
0.587726 37.4045 0.981115 0.332467 0.0227206 -0.942049
0.550235 36.3456 0.982678 0.411619 -0.00142884 -0.911354
0.550972 35.3413 0.946013 0.416734 0.0648503 -0.906712
0.465416 34.352 0.921759 0.630071 -0.370027 -0.682709
0.431609 33.4978 1.6577 0.679055 -0.564827 -0.468887
0.3946 32.8658 2.60667 0.802815 -0.567086 -0.172162
1.00345 33.5343 2.79912 0.693618 -0.66097 -0.286379
1.41167 33.9531 2.78567 0.636581 -0.708243 -0.305216
2.13137 36.1016 1.60918 0.330449 0.0432571 -0.942832
3.21296 36.2132 1.91912 0.225813 -0.00730248 -0.974143
4.3362 36.2487 1.96192 -0.11133 -0.21059 -0.971214
5.34468 36.1775 1.78314 -0.274709 -0.124508 -0.953432
6.06178 36.086 1.55717 -0.3687 -0.0979891 -0.924369
6.06886 37.0583 1.41326 -0.324331 -0.153223 -0.933452
5.02364 37.1264 1.68411 -0.182957 -0.209923 -0.960447
4.00686 37.1507 1.79067 -0.00938713 -0.28486 -0.958523
2.87828 37.1206 1.71373 0.133758 -0.223689 -0.965439
2.08561 37.0717 1.53524 0.274625 -0.113968 -0.954774
2.14645 38.0246 1.41283 0.178879 -0.0822117 -0.98043
3.21736 38.0485 1.55162 0.107786 -0.120997 -0.986784
4.34358 38.0539 1.55979 -0.0968134 -0.102345 -0.990027
5.36754 38.0369 1.42761 -0.182309 -0.132139 -0.974322
5.91451 38.0221 1.31617 -0.209334 -0.164391 -0.963927
5.78738 38.9724 1.28817 -0.163171 0.0205325 -0.986384
4.79028 38.9831 1.44116 -0.155199 -0.0204041 -0.987672
3.64846 38.9864 1.51723 0.053071 0.0161124 -0.998461
2.59537 38.9775 1.42775 0.108282 -0.00500009 -0.994108
2.16981 38.9726 1.37395 0.139714 -0.00614039 -0.990173
2.06646 39.9196 1.38126 0.12334 0.0128967 -0.992281
3.08223 39.9261 1.48317 0.0543008 0.00584951 -0.998507
4.21454 39.9283 1.50899 -0.0390319 -0.0172681 -0.999089
5.21194 39.924 1.39859 -0.140349 0.021479 -0.989869
5.88012 39.9204 1.29148 -0.184085 0.039191 -0.982129
5.92673 40.8684 1.28688 -0.161976 -0.0105772 -0.986738
4.7999 40.8721 1.43877 -0.114153 -0.0196158 -0.99327
3.778 40.874 1.48886 -0.00421803 -0.0269176 -0.999629
2.63264 40.8703 1.43481 0.0858036 -0.0256751 -0.995981
2.04909 40.867 1.37454 0.132252 -0.00947322 -0.991171
2.09611 41.8141 1.35161 0.12602 -0.0370462 -0.991336
3.28014 41.8192 1.44707 0.0519298 -0.0290179 -0.998229
4.3018 41.8204 1.45316 -0.0625995 -0.0140212 -0.99794
5.35933 41.817 1.34755 -0.110687 -0.0242763 -0.993559
5.89495 41.8151 1.28037 -0.148857 -0.0104912 -0.988803
5.85116 42.7601 1.25207 -0.134255 -0.0337456 -0.990372
4.84765 42.7672 1.37521 -0.0956641 -0.0472922 -0.99429
3.78965 42.7689 1.42109 -0.00450014 -0.0346137 -0.999391
2.77562 42.7642 1.37339 0.100227 -0.0597639 -0.993168
2.06081 42.7591 1.30457 0.0913849 -0.0571819 -0.994173
2.10264 43.7021 1.23194 0.122043 -0.099996 -0.987475
3.20659 43.7129 1.32413 0.0338738 -0.116221 -0.992646
4.32306 43.7157 1.3337 -0.0456712 -0.0807563 -0.995687
5.32315 43.7098 1.26181 -0.113983 -0.0746051 -0.990678
5.92584 43.703 1.18845 -0.150673 -0.0595332 -0.986789
5.86178 44.6432 1.09327 -0.130906 -0.12506 -0.983475
4.7873 44.656 1.19859 -0.0678881 -0.131448 -0.988996
3.63427 44.6588 1.22258 0.0232706 -0.125679 -0.991798
2.62783 44.6508 1.18225 0.058752 -0.13504 -0.989097
2.07132 44.6425 1.12638 0.116993 -0.119888 -0.98587
2.06218 45.579 0.984488 0.115018 -0.19705 -0.973623
3.21319 45.5981 1.08422 0.0570424 -0.160593 -0.985371
4.22541 45.6013 1.09855 -0.0163233 -0.173946 -0.98462
5.39613 45.589 1.01444 -0.0760384 -0.162315 -0.983805
5.90644 45.5795 0.956674 -0.132961 -0.182508 -0.974173
5.84915 46.5057 0.769533 -0.125626 -0.214134 -0.968692
4.67835 46.5322 0.900344 -0.0740383 -0.255059 -0.964087
3.59372 46.5322 0.914415 0.043217 -0.250385 -0.967181
2.52642 46.5143 0.83519 0.0938556 -0.236758 -0.967025
2.24053 46.508 0.805358 0.110537 -0.235276 -0.965622
3.504 47.4456 0.656149 0.0449691 -0.289848 -0.956016
4.39442 47.4465 0.656431 -0.0463815 -0.290349 -0.955796
4.41856 47.4463 0.655335 -0.0460846 -0.290376 -0.955802
