1.27465 34.4862 1.7539 0.633408 -0.601065 -0.483694
2.12258 35.0859 1.86696 0.483812 -0.720736 -0.49645
2.98646 35.5597 2.00478 0.26562 -0.353104 -0.895036
4.02518 35.7681 2.18737 0.0126384 -0.168995 -0.984447
5.10802 35.5652 2.07747 -0.259963 -0.497083 -0.827845
6.05307 35.0672 1.95328 -0.462756 -0.569732 -0.678045
6.53816 35.2477 1.62461 -0.463675 -0.300197 -0.829391
6.5672 36.3012 1.40843 -0.407637 -0.0782688 -0.909323
6.52174 37.2991 1.32048 -0.396099 -0.0921691 -0.91357
6.46134 38.3987 1.23687 -0.307737 -0.0493657 -0.95019
6.46433 39.4246 1.24744 -0.226259 0.0324706 -0.973526
6.45684 40.4508 1.27554 -0.202571 -0.000558854 -0.979267
6.44924 41.5681 1.27368 -0.187935 -0.0252259 -0.981858
6.4481 42.5926 1.25306 -0.165505 -0.0323853 -0.985671
6.45013 43.607 1.19629 -0.169612 -0.0643634 -0.983378
6.46858 44.692 1.09467 -0.141748 -0.0915561 -0.985595
6.46092 45.6981 0.93536 -0.149133 -0.168508 -0.974298
6.43067 46.7092 0.728769 -0.149342 -0.224235 -0.963024
5.95689 47.6053 0.568638 -0.131483 -0.292766 -0.94677
4.97458 48.0753 0.517913 -0.0612404 -0.283782 -0.956931
3.92712 48.354 0.478277 0.00329907 -0.297856 -0.954605
2.8923 48.0577 0.528904 0.0669571 -0.287951 -0.955301
1.91232 47.6135 0.566192 0.158508 -0.285318 -0.945221
1.54816 46.6178 0.779375 0.135244 -0.226624 -0.964522
1.55783 45.6087 0.991684 0.144398 -0.16536 -0.975605
1.54359 44.5794 1.15163 0.152364 -0.111272 -0.982041
1.58191 43.4934 1.27174 0.133759 -0.0787034 -0.987884
1.55795 42.3005 1.34424 0.132932 -0.047617 -0.989981
1.55026 41.2864 1.37529 0.160762 -0.0398995 -0.986186
1.55384 40.1682 1.39566 0.169215 -0.00570665 -0.985504
1.58164 39.0453 1.37309 0.169694 0.0231095 -0.985051
1.55019 37.9288 1.39085 0.26998 -0.0381351 -0.961795
1.48221 36.8226 1.4839 0.314771 -0.0890891 -0.944977
1.45882 35.8001 1.46612 0.377341 -0.0259471 -0.925711
1.34375 34.8243 1.55868 0.570224 -0.462932 -0.669888
1.31111 34.6136 1.65693 0.632653 -0.491615 -0.588638
0.502273 34.686 1.00147 0.56634 -0.0534355 -0.820822
0.525759 35.75 1.06752 0.426337 0.0823657 -0.900807
0.571895 36.896 1.09317 0.423696 0.00798341 -0.905769
0.589308 37.9983 1.10929 0.289751 0.069842 -0.954105
0.583839 39.056 1.18508 0.199534 0.0643787 -0.977774
0.569627 40.184 1.20691 0.199743 -0.00682024 -0.979825
0.579887 41.2745 1.19944 0.201081 -0.00484516 -0.979562
0.579691 42.293 1.18312 0.169692 -0.0239963 -0.985205
0.586214 43.3115 1.1298 0.169686 -0.0987406 -0.980445
0.572627 44.4377 0.99709 0.195903 -0.124335 -0.972709
0.571766 45.454 0.855002 0.19505 -0.142955 -0.970319
0.565791 46.4662 0.667443 0.143212 -0.206842 -0.967478
0.594137 47.4818 0.372708 0.188718 -0.312393 -0.931019
1.12157 48.2456 0.21915 0.182245 -0.317025 -0.930743
2.02548 48.7302 0.214425 0.116665 -0.317291 -0.941027
3.03886 49.1222 0.198858 0.082564 -0.32131 -0.943323
4.2108 49.3499 0.177392 -0.0197091 -0.300409 -0.953331
5.31223 48.9688 0.204332 -0.122585 -0.320784 -0.939186
6.27881 48.4991 0.228747 -0.174411 -0.344177 -0.922563
7.14305 47.9274 0.23941 -0.20135 -0.312456 -0.92834
7.4117 46.9727 0.488584 -0.175992 -0.279605 -0.943847
7.42099 45.941 0.721937 -0.212509 -0.156509 -0.964544
7.42579 44.9134 0.867823 -0.208699 -0.114282 -0.97128
7.42057 43.8934 0.984514 -0.199008 -0.0947048 -0.97541
7.40749 42.8135 1.06741 -0.186833 -0.0453447 -0.981345
7.40995 41.7361 1.07366 -0.218635 0.0126908 -0.975651
7.4251 40.6136 1.04728 -0.23928 0.0172749 -0.970797
7.42642 39.5812 1.02574 -0.238983 0.0267168 -0.970641
7.42049 38.5794 0.976292 -0.268974 0.0451391 -0.962089
7.43561 37.5159 0.918356 -0.351687 0.0120797 -0.93604
7.45905 36.4942 0.926395 -0.411235 -0.0444916 -0.910443
7.46389 35.4071 1.12054 -0.441083 -0.229453 -0.867627
7.46161 34.3767 1.54477 -0.413372 -0.408969 -0.813552
7.54688 33.5045 2.10621 -0.573075 -0.721621 -0.385144
7.10454 33.6069 2.80513 -0.575092 -0.783982 -0.233754
6.24688 34.2357 2.80415 -0.596281 -0.692387 -0.404141
5.3166 34.8336 2.76959 -0.334317 -0.821069 -0.461392
4.20573 35.0555 2.7799 -0.131308 -0.890562 -0.424712
3.07126 35.0463 2.74708 0.194883 -0.927559 -0.314227
2.06091 34.6095 2.77276 0.557287 -0.778237 -0.286055
1.21601 33.8802 2.79883 0.658564 -0.691476 -0.296908
0.483969 33.0683 2.75113 0.795202 -0.576562 -0.187699
0.416561 33.5061 1.84411 0.731603 -0.528596 -0.430516
0.4622 34.2464 1.14605 0.642483 -0.375804 -0.666866
0.491459 34.5474 1.01004 0.578255 -0.233384 -0.764779
1.99097 36.2561 1.67913 0.32743 0.0298764 -0.944403
2.95232 36.3614 1.95213 0.269843 -0.12684 -0.954514
4.04231 36.4155 2.06442 -0.030128 -0.235257 -0.971466
5.08776 36.3714 1.93449 -0.221331 -0.145946 -0.964216
5.92804 36.2722 1.6863 -0.375472 -0.115221 -0.919644
5.98851 37.2405 1.5286 -0.312825 -0.144374 -0.938774
4.92862 37.3011 1.76633 -0.16071 -0.206418 -0.965176
3.84864 37.3192 1.85175 -0.0380316 -0.220507 -0.974644
2.63452 37.2797 1.73872 0.152109 -0.235226 -0.959964
2.04003 37.2448 1.60552 0.282728 -0.153396 -0.946855
2.13519 38.2078 1.48501 0.15421 -0.112228 -0.981644
3.19609 38.2292 1.61116 0.10578 -0.161183 -0.981239
4.26233 38.2351 1.63586 -0.0783154 -0.0985489 -0.992046
5.26402 38.2183 1.51096 -0.165777 -0.161024 -0.972928
5.8127 38.2051 1.41253 -0.231371 -0.10565 -0.967112
5.95789 39.1618 1.35062 -0.190328 0.0188214 -0.98154
4.85178 39.1736 1.52755 -0.143878 0.0161633 -0.989463
3.77428 39.1776 1.60922 -0.0116187 0.0478846 -0.998785
2.73209 39.172 1.5271 0.102078 0.0114405 -0.994711
2.21143 39.1672 1.46712 0.127056 0.013852 -0.991799
2.08067 40.123 1.47456 0.10865 0.0245768 -0.993776
3.27698 40.1287 1.58187 0.0432751 -0.0179088 -0.998903
4.28412 40.1295 1.57957 -0.0520651 0.00552017 -0.998628
5.30122 40.1247 1.47657 -0.142685 -0.00541486 -0.989753
5.94414 40.1212 1.36838 -0.174281 0.00342158 -0.98469
5.95941 41.0788 1.37164 -0.170913 -8.70117e-05 -0.985286
4.84195 41.0833 1.51297 -0.102188 -0.0354159 -0.994134
3.76979 41.0858 1.57359 -0.0215967 -0.0316486 -0.999266
2.76311 41.0826 1.52568 0.0803526 -0.0418368 -0.995888
2.25053 41.0802 1.4775 0.104247 -0.0161641 -0.99442
2.06319 42.0353 1.42761 0.125863 -0.0568285 -0.990419
3.09199 42.0402 1.51766 0.0647136 -0.0421695 -0.997012
4.10127 42.0415 1.54449 -0.04524 -0.00985114 -0.998928
5.12326 42.0391 1.45607 -0.112243 -0.0211111 -0.993456
5.91847 42.0349 1.35915 -0.148097 -0.0388063 -0.988211
5.87419 42.9895 1.32728 -0.143425 -0.0647826 -0.987539
4.82075 42.9981 1.45301 -0.102555 -0.0758955 -0.991828
3.79747 43.0013 1.50026 0.00180403 -0.0336592 -0.999432
2.66623 42.995 1.43607 0.094646 -0.085586 -0.991825
2.1277 42.9899 1.38442 0.109539 -0.0890653 -0.989984
2.0716 43.9412 1.29586 0.0955349 -0.12232 -0.987882
3.14149 43.9521 1.37593 0.0451719 -0.11453 -0.992392
4.20611 43.9554 1.40069 -0.0356308 -0.121454 -0.991957
5.40343 43.9472 1.31411 -0.0951606 -0.107182 -0.989675
5.87941 43.9419 1.25702 -0.136844 -0.115375 -0.983851
5.79283 44.8934 1.16127 -0.113825 -0.136163 -0.984126
4.62546 44.9064 1.26184 -0.0753053 -0.11858 -0.990085
3.54497 44.906 1.27898 0.0142754 -0.133653 -0.990925
2.54264 44.8979 1.22682 0.0716127 -0.132936 -0.988534
2.21576 44.8933 1.19822 0.101754 -0.135521 -0.985535
2.20125 45.837 1.04034 0.136197 -0.203159 -0.969627
3.25654 45.8541 1.12633 0.0581275 -0.160363 -0.985345
4.36154 45.8574 1.13124 -0.0476942 -0.179364 -0.982626
5.38764 45.8453 1.06109 -0.129421 -0.200651 -0.971076
5.94947 45.8327 0.98881 -0.140345 -0.196999 -0.970306
5.91993 46.765 0.786048 -0.1263 -0.241679 -0.962102
4.89588 46.7891 0.901287 -0.0933087 -0.268187 -0.958837
3.87329 46.7974 0.942725 -0.0205389 -0.25971 -0.965468
2.72334 46.7802 0.875452 0.0686654 -0.253108 -0.964998
2.08109 46.7653 0.812282 0.119159 -0.243431 -0.962571
3.37124 47.7141 0.665105 0.0487194 -0.285405 -0.957168
4.39948 47.7155 0.666663 -0.0559803 -0.278935 -0.958677
4.52578 47.7139 0.659769 -0.0641212 -0.280448 -0.957725
