1.30898 34.6462 1.81246 0.633481 -0.575333 -0.512635
1.46942 35.6669 1.58398 0.371354 0.0385951 -0.927689
1.45554 36.691 1.59695 0.359168 -0.038217 -0.931531
1.49687 37.7406 1.50816 0.250661 -0.145424 -0.95709
1.55205 38.8598 1.4523 0.17779 -0.0218309 -0.983826
1.56454 39.9319 1.48325 0.164496 0.00700966 -0.986353
1.57864 40.9956 1.47749 0.147481 -0.00688368 -0.988964
1.57463 42.0525 1.44 0.15405 -0.0386012 -0.987308
1.57079 43.1279 1.39172 0.136577 -0.0908573 -0.986355
1.59785 44.2086 1.28656 0.137541 -0.11517 -0.98377
1.56835 45.2481 1.15164 0.145633 -0.124498 -0.981474
1.56786 46.2479 0.95246 0.149413 -0.2145 -0.965197
1.62037 47.3556 0.686332 0.135772 -0.273605 -0.952143
2.25321 48.0481 0.564641 0.116357 -0.304209 -0.945341
3.25538 48.3974 0.53637 0.0593951 -0.284498 -0.956835
4.30781 48.4517 0.535766 -0.0168399 -0.273632 -0.961687
5.31592 48.1862 0.549844 -0.078598 -0.28514 -0.955258
6.29788 47.5723 0.610402 -0.159088 -0.293783 -0.94254
6.42766 46.4614 0.876687 -0.162026 -0.22097 -0.961727
6.46174 45.4518 1.07853 -0.156706 -0.200101 -0.967162
6.43897 44.3953 1.21282 -0.166208 -0.0903436 -0.981943
6.42858 43.3476 1.30656 -0.149074 -0.0665974 -0.986581
6.44707 42.1039 1.35888 -0.156998 -0.033282 -0.987032
6.4682 41.053 1.36568 -0.205116 0.0144301 -0.978575
6.46378 40.0013 1.35438 -0.208621 0.0351241 -0.977366
6.44705 38.926 1.32777 -0.223788 0.0259537 -0.974292
6.45331 37.913 1.36465 -0.305567 -0.145471 -0.940992
6.5511 36.8688 1.4641 -0.376546 -0.125615 -0.917842
6.57701 35.7534 1.60685 -0.44276 -0.19059 -0.876138
6.30248 35.0204 1.95407 -0.367609 -0.352931 -0.860409
5.47253 35.5758 2.06784 -0.360108 -0.373404 -0.848765
4.50186 35.9179 2.24452 -0.210501 -0.241438 -0.94731
3.47952 35.9103 2.2073 0.190881 -0.154584 -0.963495
2.50352 35.5337 2.01065 0.308163 -0.19678 -0.93076
1.66854 34.9322 1.87733 0.448193 -0.58067 -0.67114
1.30963 34.6458 1.81401 0.608188 -0.616814 -0.495138
1.63371 34.3668 2.77131 0.622569 -0.728746 -0.285196
0.901954 33.6697 2.80081 0.685365 -0.668045 -0.289812
0.377013 33.1923 2.45637 0.73795 -0.588068 -0.326536
0.441848 33.969 1.54413 0.629111 -0.554309 -0.544262
0.513539 34.8582 1.11563 0.52898 -0.153187 -0.834694
0.551036 35.8509 1.21004 0.40992 0.0453969 -0.910043
0.534483 36.8747 1.18051 0.424147 -0.0203502 -0.905117
0.560798 37.9065 1.18543 0.33185 0.0354403 -0.942666
0.572102 39.0559 1.26882 0.202436 0.0645704 -0.977164
0.593043 40.2117 1.30144 0.202952 0.00100707 -0.979109
0.59041 41.2396 1.2864 0.199216 -0.0164051 -0.979818
0.59425 42.2916 1.2715 0.177988 -0.01917 -0.983846
0.594629 43.3363 1.21441 0.174999 -0.107625 -0.978669
0.611503 44.3305 1.10456 0.186305 -0.124972 -0.974511
0.587595 45.3677 0.958962 0.181998 -0.135037 -0.973924
0.582266 46.4998 0.747019 0.170802 -0.232953 -0.957169
0.599363 47.4781 0.464709 0.194833 -0.301342 -0.933399
1.07215 48.4512 0.22867 0.191931 -0.325921 -0.925686
1.98453 48.956 0.219949 0.140218 -0.330661 -0.933103
2.97469 49.3443 0.207519 0.113996 -0.323071 -0.939484
4.02564 49.4282 0.239759 -0.0268901 -0.310034 -0.949864
5.07476 49.3009 0.209307 -0.122978 -0.332266 -0.935121
6.06033 48.8612 0.226557 -0.154556 -0.331579 -0.930508
6.98206 48.3179 0.233081 -0.204914 -0.32844 -0.922029
7.40554 47.3886 0.455764 -0.215406 -0.308007 -0.926678
7.41341 46.3753 0.728849 -0.191919 -0.200801 -0.96064
7.42679 45.2969 0.906825 -0.197253 -0.135494 -0.970944
7.41268 44.2605 1.03225 -0.204724 -0.105581 -0.973106
7.40056 43.0898 1.14009 -0.190427 -0.0720992 -0.97905
7.44256 42.0714 1.15688 -0.211927 0.0137349 -0.977156
7.42315 40.8973 1.14046 -0.239246 0.0174151 -0.970802
7.44184 39.7699 1.11437 -0.240916 0.0246039 -0.970234
7.4337 38.6213 1.06304 -0.261394 0.0516501 -0.963826
7.41868 37.5479 1.01469 -0.354857 0.0322429 -0.934364
7.48326 36.4781 1.0207 -0.446091 -0.0782591 -0.890466
7.48467 35.4356 1.21853 -0.441677 -0.271785 -0.85378
7.46828 34.3642 1.64204 -0.432143 -0.387063 -0.812677
7.51212 33.5744 2.24492 -0.60118 -0.774735 -0.195878
6.92094 33.8276 2.80154 -0.527255 -0.776153 -0.345816
6.13721 34.4598 2.79702 -0.55963 -0.691901 -0.456167
5.27372 34.9532 2.78329 -0.295147 -0.834621 -0.465076
4.25084 35.1961 2.77757 -0.109103 -0.837777 -0.535001
3.16566 35.1554 2.75642 0.139707 -0.928994 -0.342714
2.03539 34.6844 2.76687 0.545136 -0.786691 -0.287662
1.63802 34.3705 2.77135 0.62109 -0.729472 -0.286553
2.04582 36.3556 1.80431 0.328301 -0.00125163 -0.944572
3.07464 36.4693 2.07362 0.25179 -0.124777 -0.959704
4.11373 36.5191 2.15267 -0.0345803 -0.237684 -0.970727
5.16512 36.4647 2.01097 -0.23244 -0.188085 -0.954251
6.07314 36.3599 1.74439 -0.345162 -0.0845696 -0.934725
5.92524 37.3416 1.63552 -0.279977 -0.159718 -0.946627
4.83793 37.3996 1.86827 -0.191987 -0.238789 -0.951904
3.79051 37.4138 1.93882 -0.00458377 -0.266543 -0.963812
2.72537 37.3712 1.8272 0.164444 -0.241673 -0.956322
2.13173 37.3392 1.71834 0.210892 -0.146252 -0.966507
2.13854 38.2933 1.5726 0.159776 -0.120312 -0.979794
3.31849 38.3193 1.71328 0.129413 -0.133648 -0.982543
4.44927 38.326 1.72507 -0.112575 -0.121499 -0.986187
5.47456 38.3028 1.5591 -0.189926 -0.138534 -0.971976
5.8349 38.2941 1.49617 -0.205174 -0.112546 -0.972233
5.79458 39.2466 1.46588 -0.167078 0.0295975 -0.985499
4.60749 39.2592 1.64199 -0.140462 -0.00404165 -0.990078
3.46534 39.2604 1.68265 0.0183949 -0.0346206 -0.999231
2.4666 39.2511 1.5924 0.0969256 0.0157808 -0.995167
2.13676 39.247 1.55063 0.134191 0.0163357 -0.990821
2.07742 40.1993 1.55926 0.134313 -0.0125702 -0.990859
3.10526 40.206 1.6635 0.0995421 -0.00174263 -0.995032
4.12953 40.2082 1.68413 -0.02414 -0.040697 -0.99888
5.36004 40.2018 1.55527 -0.132087 -0.022837 -0.990975
5.93389 40.1983 1.46464 -0.171496 0.0282482 -0.98478
5.92407 41.1507 1.4625 -0.156249 -0.0252757 -0.987394
4.83688 41.1558 1.59817 -0.1052 -0.0366834 -0.993774
3.7562 41.1579 1.6638 0.00866309 -0.0327939 -0.999425
2.69967 41.1547 1.60337 0.0941246 -0.0182984 -0.995392
2.09426 41.1514 1.5452 0.103622 -0.0118496 -0.994546
2.26289 42.1022 1.53082 0.0978505 -0.0469354 -0.994094
3.27044 42.1078 1.6083 0.0464558 -0.0448974 -0.997911
4.4051 42.1087 1.60772 -0.0383352 -0.0407758 -0.998433
5.56323 42.1037 1.48873 -0.116422 -0.0230418 -0.992933
5.88387 42.1019 1.44989 -0.15055 -0.0388864 -0.987837
5.91627 43.0507 1.40426 -0.161136 -0.060464 -0.985078
4.89948 43.0591 1.52398 -0.0945698 -0.0714019 -0.992954
3.89558 43.0621 1.5829 0.012832 -0.0914585 -0.995726
2.86971 43.0573 1.53568 0.0483588 -0.0698289 -0.996386
2.09526 43.0503 1.45842 0.10152 -0.0852887 -0.991171
2.18527 43.9983 1.38401 0.103764 -0.127765 -0.986362
3.20201 44.009 1.46283 0.0544662 -0.127192 -0.990382
4.24811 44.0118 1.48002 -0.0444102 -0.120876 -0.991674
5.26343 44.0047 1.40625 -0.101108 -0.119321 -0.987694
5.80122 43.9984 1.3437 -0.129903 -0.097751 -0.986696
5.94773 44.94 1.21937 -0.139422 -0.131903 -0.981409
4.92036 44.9536 1.32078 -0.0795107 -0.134315 -0.987744
3.7781 44.9584 1.36362 0.00294221 -0.126427 -0.991972
2.62172 44.949 1.31088 0.0619622 -0.130105 -0.989562
2.11833 44.9408 1.25989 0.104867 -0.142548 -0.984217
2.21302 45.8811 1.11643 0.102894 -0.204208 -0.973505
3.25685 45.8975 1.20007 0.0461682 -0.182407 -0.982139
4.40326 45.9026 1.21707 -0.0422306 -0.167587 -0.984952
5.42626 45.8894 1.13534 -0.0980084 -0.166576 -0.981146
5.91361 45.8783 1.0724 -0.138185 -0.186461 -0.972696
5.91804 46.8047 0.864424 -0.123562 -0.249913 -0.960352
4.84734 46.8305 0.983647 -0.100079 -0.262611 -0.959698
3.81853 46.8373 1.01631 -0.00470886 -0.26713 -0.963649
2.72295 46.8203 0.951411 0.0892588 -0.234355 -0.968045
2.12957 46.8079 0.899809 0.125802 -0.234858 -0.963855
2.9105 47.7407 0.710781 0.0715459 -0.280854 -0.95708
3.91042 47.7517 0.750678 0.00382435 -0.293187 -0.956047
4.91119 47.744 0.713048 -0.07986 -0.276269 -0.957757
5.08151 47.741 0.700309 -0.0764954 -0.280303 -0.956859
