1.43233 36.6428 1.69948 0.356759 -0.0354576 -0.932273
1.46918 35.5536 1.70511 0.348153 0.0120123 -0.937361
1.7501 35.1906 1.87621 0.38132 -0.415595 -0.775819
2.66486 35.7923 2.13354 0.279909 -0.335215 -0.88898
3.58176 36.1201 2.33112 0.109094 -0.131665 -0.985273
4.64636 36.0634 2.30447 -0.192972 -0.191133 -0.96236
5.6342 35.6347 2.11773 -0.322449 -0.333514 -0.885886
6.52187 35.2083 1.88217 -0.438169 -0.34984 -0.828022
6.56236 36.2515 1.63516 -0.418028 -0.118724 -0.900642
6.53778 37.299 1.52486 -0.384578 -0.0980332 -0.917872
6.48358 38.3058 1.4325 -0.265167 -0.100089 -0.957317
6.43332 39.5158 1.43329 -0.209937 0.0319023 -0.977194
6.4336 40.7182 1.4504 -0.201263 0.00942221 -0.979461
6.45944 41.8334 1.44509 -0.19775 -0.00122468 -0.980249
6.43208 42.9485 1.41505 -0.162843 -0.0468103 -0.985541
6.42468 44.1144 1.32504 -0.150448 -0.100931 -0.983452
6.44409 45.1341 1.2004 -0.167998 -0.113455 -0.979237
6.45874 46.1553 1.02642 -0.157823 -0.188514 -0.969306
6.45114 47.1424 0.793814 -0.16275 -0.259886 -0.951825
5.98576 48.0761 0.593373 -0.148051 -0.295778 -0.9437
4.96545 48.4863 0.574011 -0.0728486 -0.284079 -0.955993
3.76811 48.4292 0.632405 0.00384361 -0.289049 -0.95713
2.66732 48.409 0.576777 0.0841854 -0.303524 -0.949098
1.62792 47.8206 0.643799 0.140475 -0.304707 -0.94203
1.55677 46.8259 0.907874 0.142979 -0.251028 -0.957362
1.55696 45.7608 1.14434 0.122878 -0.190867 -0.973895
1.56364 44.6214 1.32352 0.147929 -0.14004 -0.978861
1.55341 43.6014 1.43432 0.126058 -0.111658 -0.985719
1.56685 42.5549 1.5113 0.14778 -0.0446379 -0.987987
1.58208 41.4907 1.54739 0.154346 -0.0453718 -0.986974
1.59389 40.4529 1.57262 0.152017 -0.0203693 -0.988168
1.5719 39.4142 1.55963 0.167852 0.00863467 -0.985753
1.50969 38.3959 1.55077 0.200503 -0.101462 -0.973126
1.45435 37.3319 1.6452 0.311095 -0.077693 -0.947066
1.43267 36.8009 1.68613 0.317112 -0.0880744 -0.943985
0.515412 36.75 1.2822 0.431958 -0.0104195 -0.901833
0.544885 35.6015 1.29902 0.412274 0.0761408 -0.907841
0.473967 34.543 1.29884 0.616264 -0.274109 -0.738297
0.43043 33.7734 1.93182 0.687927 -0.563355 -0.454676
0.419442 33.2438 2.75748 0.744627 -0.619839 -0.235929
1.1397 34.0333 2.78186 0.670314 -0.675967 -0.306139
1.89588 34.7055 2.74175 0.595513 -0.749842 -0.287191
2.83832 35.1511 2.75799 0.321322 -0.916028 -0.240094
3.92615 35.3354 2.76307 -0.0395632 -0.874348 -0.479913
4.93719 35.1589 2.80366 -0.170454 -0.797693 -0.578474
5.92908 34.7143 2.80382 -0.496543 -0.734605 -0.453791
6.75152 34.012 2.82383 -0.561379 -0.744845 -0.359439
7.4958 33.6244 2.44092 -0.564862 -0.789234 -0.240772
7.48765 34.4207 1.73527 -0.398072 -0.377809 -0.835942
7.45047 35.3711 1.37018 -0.43028 -0.304558 -0.849767
7.45812 36.3601 1.15158 -0.462363 -0.092275 -0.881876
7.44119 37.4958 1.10898 -0.408943 -0.0319701 -0.911619
7.4389 38.6177 1.15053 -0.273154 0.0500929 -0.960665
7.41903 39.7304 1.2061 -0.237257 0.0252071 -0.97112
7.41962 40.8249 1.22769 -0.23609 0.0156615 -0.971605
7.43015 41.8988 1.24499 -0.218583 0.00743808 -0.975772
7.41856 43.0301 1.22784 -0.200411 -0.052264 -0.978317
7.40098 44.1518 1.13521 -0.197935 -0.103254 -0.974716
7.43562 45.2434 0.998401 -0.202219 -0.132834 -0.97029
7.4317 46.2717 0.83839 -0.190162 -0.181523 -0.964825
7.41823 47.2432 0.590849 -0.200124 -0.288645 -0.936095
7.3642 48.1919 0.283154 -0.219892 -0.319421 -0.92173
6.54298 48.8517 0.228812 -0.192576 -0.322239 -0.926864
5.62571 49.3078 0.223799 -0.127644 -0.324936 -0.937082
4.63734 49.4566 0.292503 -0.0890969 -0.324864 -0.941555
3.59933 49.4103 0.325025 0.0633575 -0.319583 -0.945438
2.39567 49.3564 0.222377 0.12685 -0.329303 -0.935665
1.31183 48.8516 0.225926 0.187015 -0.338604 -0.922116
0.602602 48.1953 0.311336 0.204981 -0.327799 -0.922242
0.581222 47.0732 0.679088 0.183582 -0.279811 -0.94234
0.575398 46.0496 0.927766 0.160641 -0.175736 -0.971165
0.57003 45.0544 1.08671 0.182381 -0.1478 -0.972056
0.580301 44.0233 1.22301 0.179806 -0.117038 -0.976715
0.572864 43.0225 1.32342 0.168303 -0.072344 -0.983076
0.583133 41.9423 1.36629 0.187922 -0.013407 -0.982087
0.589935 40.8399 1.38074 0.197027 -0.0107814 -0.980339
0.596717 39.6395 1.38891 0.183045 0.0145821 -0.982737
0.552847 38.5295 1.31919 0.253969 0.0652238 -0.965011
0.538234 37.4837 1.27578 0.321659 0.0158476 -0.946723
0.518353 36.9995 1.28072 0.431958 -0.0104195 -0.901834
1.96362 37.4133 1.76078 0.21768 -0.133873 -0.966795
2.95195 37.4645 1.9423 0.141332 -0.224616 -0.964144
4.02175 37.4955 2.02572 -0.0235008 -0.27382 -0.961494
5.05277 37.4678 1.91046 -0.161062 -0.237283 -0.957996
5.97221 37.4221 1.71557 -0.279973 -0.17006 -0.944825
5.98619 38.3677 1.53822 -0.236819 -0.148391 -0.960155
4.90684 38.3913 1.73522 -0.14223 -0.181827 -0.97299
3.84016 38.4021 1.82914 0.00866082 -0.156789 -0.987594
2.8363 38.386 1.75017 0.0971137 -0.166755 -0.981204
2.0224 38.3683 1.63844 0.163136 -0.132679 -0.977641
2.13549 39.3197 1.64022 0.140388 0.0121258 -0.990022
3.25462 39.3314 1.75945 0.0835113 0.00945607 -0.996462
4.28251 39.334 1.76844 -0.0760575 -0.0365545 -0.996433
5.3519 39.3256 1.63142 -0.161917 0.0238217 -0.986517
5.86471 39.3203 1.54341 -0.181806 0.0345899 -0.982726
5.8427 40.2684 1.56095 -0.173815 -0.0167056 -0.984637
4.83967 40.2744 1.71318 -0.109377 -0.0348102 -0.993391
3.80523 40.2764 1.77261 0.00153159 -0.00319106 -0.999994
2.6628 40.2711 1.70673 0.0990927 -0.0230564 -0.994811
2.12693 40.2675 1.65466 0.106995 -0.0325502 -0.993727
2.09464 41.214 1.62984 0.108835 -0.0406265 -0.993229
3.1831 41.2197 1.72264 0.0518894 -0.038273 -0.997919
4.18759 41.221 1.73532 -0.0394783 -0.0418538 -0.998343
5.27054 41.218 1.63163 -0.121546 -0.0165539 -0.992448
5.92067 41.2151 1.5458 -0.13791 -0.00324383 -0.990439
5.92717 42.1603 1.52312 -0.136355 -0.0250883 -0.990342
4.74808 42.1657 1.65991 -0.0851221 -0.0466134 -0.99528
3.59039 42.167 1.70533 0.0173651 -0.0626457 -0.997885
2.34548 42.162 1.62185 0.0929526 -0.0462132 -0.994597
2.32886 42.1619 1.6203 0.0937544 -0.0400161 -0.994791
2.13075 43.1047 1.54801 0.128071 -0.0808949 -0.98846
3.17538 43.1142 1.6344 0.0530279 -0.08967 -0.994559
4.18865 43.1166 1.65104 -0.0259537 -0.0999549 -0.994653
5.40167 43.1093 1.55534 -0.0980628 -0.0836656 -0.991657
5.90624 43.1046 1.48781 -0.142399 -0.0692619 -0.987383
5.83678 44.0466 1.41938 -0.137581 -0.11792 -0.983446
4.74545 44.0577 1.52951 -0.0731383 -0.121396 -0.989906
3.58967 44.0602 1.56236 0.0192469 -0.113607 -0.993339
2.56463 44.052 1.50016 0.080822 -0.099214 -0.991778
2.10552 44.0463 1.4574 0.106745 -0.100427 -0.989202
2.08225 44.984 1.33438 0.114623 -0.148987 -0.982173
3.14598 44.9987 1.41978 0.0569988 -0.129012 -0.990004
4.18223 45.0028 1.44218 -0.0299172 -0.114466 -0.992977
5.26352 44.993 1.36865 -0.0882916 -0.141439 -0.986002
5.87186 44.9843 1.30459 -0.131042 -0.137675 -0.981771
5.93278 45.9172 1.15371 -0.140526 -0.189321 -0.971808
4.88933 45.9365 1.26205 -0.0702519 -0.209522 -0.975277
3.78709 45.9413 1.30208 0.0215041 -0.167705 -0.985603
2.72214 45.9308 1.24759 0.0837936 -0.183391 -0.979462
2.16697 45.9193 1.19083 0.124065 -0.207165 -0.970407
2.13355 46.8416 0.978477 0.113401 -0.239381 -0.964281
3.16216 46.8658 1.07457 0.0713399 -0.267068 -0.961034
4.20955 46.8714 1.09306 -0.00231366 -0.263018 -0.964788
5.24861 46.8548 1.02094 -0.114222 -0.255012 -0.960168
5.91935 46.8402 0.950846 -0.135287 -0.229829 -0.963782
5.3875 47.7652 0.754449 -0.0870461 -0.271442 -0.95851
4.17242 47.7843 0.836939 -0.0395098 -0.295152 -0.954633
3.12352 47.7745 0.808125 0.0685779 -0.285971 -0.955781
2.39417 47.7613 0.757099 0.114047 -0.267794 -0.956703
3.2553 36.5764 2.20591 0.184627 -0.223855 -0.956975
2.11601 36.4579 1.92023 0.252445 -0.0530676 -0.966155
2.08803 36.4557 1.91394 0.219271 -0.000584006 -0.975664
4.534 36.5873 2.21786 -0.187522 -0.217082 -0.957972
5.58851 36.5019 1.99567 -0.27128 -0.139373 -0.952356
5.91989 36.4631 1.89586 -0.297541 -0.11878 -0.947291
6.01976 36.4522 1.86587 -0.350369 -0.0930235 -0.931981
