1.43675 35.0928 1.89113 0.562124 -0.41883 -0.709336
1.45071 36.2742 1.80812 0.353864 0.00739266 -0.935117
1.48288 37.481 1.73833 0.338442 -0.108106 -0.934752
1.54581 38.587 1.64472 0.196475 -0.0300858 -0.979406
1.57059 39.61 1.65178 0.15033 0.0125943 -0.988555
1.57338 40.6139 1.65372 0.153542 -0.00688131 -0.988114
1.57925 41.8108 1.62397 0.151277 -0.0178464 -0.98833
1.58884 42.8486 1.57771 0.14735 -0.0508297 -0.987778
1.56577 43.8646 1.48916 0.141477 -0.107213 -0.984119
1.56381 44.9989 1.35074 0.143227 -0.146889 -0.978729
1.55056 46.0796 1.16652 0.135052 -0.189683 -0.972507
1.57605 47.1997 0.894746 0.134554 -0.252884 -0.958094
1.79488 48.2182 0.616311 0.130096 -0.325725 -0.936471
2.80968 48.4896 0.655814 0.0727608 -0.312744 -0.947047
3.81984 48.4773 0.707967 0.000480928 -0.289826 -0.957079
4.84014 48.4857 0.672988 -0.0716799 -0.295042 -0.952773
5.94526 48.3205 0.614255 -0.132818 -0.306425 -0.942245
6.4501 47.4833 0.794591 -0.157434 -0.272103 -0.949302
6.46146 46.4516 1.05414 -0.161876 -0.220313 -0.961901
6.44023 45.4491 1.24742 -0.163938 -0.131257 -0.977663
6.42523 44.3819 1.38407 -0.172574 -0.0843909 -0.981375
6.44145 43.2706 1.47816 -0.1647 -0.0678116 -0.984008
6.44577 42.228 1.52584 -0.197707 -0.045066 -0.979225
6.43268 41.2146 1.54202 -0.182504 -0.00720017 -0.983157
6.45083 40.1811 1.53915 -0.225186 0.023216 -0.973945
6.47974 39.0786 1.50363 -0.232912 0.0215312 -0.972259
6.5021 37.9916 1.54723 -0.312995 -0.0840355 -0.94603
6.55163 36.8002 1.68135 -0.379403 -0.132136 -0.915747
6.56732 35.7249 1.8225 -0.414863 -0.183232 -0.890724
6.0802 35.4951 2.10256 -0.34769 -0.197596 -0.913371
5.20059 36.0287 2.28372 -0.255607 -0.139507 -0.956662
4.12389 36.311 2.42678 -0.0618286 -0.198689 -0.974719
2.97858 36.1393 2.28256 0.234506 -0.140997 -0.961835
2.04697 35.64 2.02644 0.33363 -0.0866649 -0.932291
1.51372 35.1674 1.9119 0.498692 -0.513691 -0.685421
1.8546 34.7558 2.74768 0.593676 -0.753351 -0.282861
1.09067 34.094 2.7902 0.648981 -0.695391 -0.308634
0.394829 33.419 2.62744 0.739971 -0.609342 -0.28486
0.445172 34.0953 1.79982 0.64206 -0.540227 -0.543833
0.489296 35.0018 1.37828 0.525056 -0.0971703 -0.845502
0.534985 36.0887 1.43965 0.406851 -0.0111992 -0.912952
0.543095 37.1225 1.39316 0.421465 -0.0327901 -0.906252
0.579172 38.1425 1.39737 0.308409 0.0371065 -0.949798
0.583982 39.1913 1.45606 0.193546 0.0415442 -0.980211
0.59583 40.3814 1.47563 0.205058 -0.011935 -0.978677
0.581304 41.4061 1.45817 0.192693 -0.0155358 -0.981136
0.587879 42.4685 1.44264 0.171941 -0.0382209 -0.984355
0.575232 43.5405 1.36341 0.172537 -0.112712 -0.978533
0.577975 44.5656 1.24314 0.182514 -0.135205 -0.973853
0.572937 45.5651 1.10153 0.19004 -0.145301 -0.970965
0.57813 46.5943 0.901762 0.149189 -0.252454 -0.956038
0.57521 47.6964 0.571654 0.200608 -0.313837 -0.928017
0.739064 48.698 0.253306 0.205332 -0.335682 -0.919324
1.62103 49.2228 0.237366 0.175618 -0.341818 -0.923211
2.79833 49.4426 0.335485 0.113006 -0.343388 -0.93237
3.86602 49.4294 0.41949 0.0327339 -0.309502 -0.95032
4.88987 49.4361 0.360641 -0.100505 -0.331719 -0.938008
5.96977 49.3506 0.246359 -0.160869 -0.34462 -0.924804
6.88455 48.9048 0.227171 -0.197504 -0.330753 -0.922816
7.41935 48.0935 0.397129 -0.220603 -0.322347 -0.920558
7.42295 46.9406 0.766265 -0.207323 -0.261643 -0.942635
7.42626 45.8968 0.992896 -0.182484 -0.155883 -0.97074
7.41705 44.7574 1.15156 -0.205641 -0.114252 -0.971913
7.41642 43.6777 1.26371 -0.207176 -0.0882931 -0.974311
7.41736 42.4974 1.33557 -0.197811 -0.0054505 -0.980097
7.41091 41.4786 1.32831 -0.226314 0.0111794 -0.973945
7.4006 40.419 1.31365 -0.243235 0.0149174 -0.969853
7.42147 39.244 1.27506 -0.239253 0.0431908 -0.969996
7.43582 38.1387 1.21951 -0.294808 0.00686416 -0.954714
7.4538 37.126 1.20823 -0.428665 -0.0264719 -0.902985
7.46334 36.1279 1.28792 -0.480287 -0.126923 -0.867871
7.47533 35.0619 1.57959 -0.439685 -0.337556 -0.831646
7.52047 34.1079 2.06704 -0.523155 -0.436464 -0.729313
7.22834 33.8004 2.80036 -0.528029 -0.769901 -0.358148
6.33507 34.4972 2.81421 -0.593946 -0.674462 -0.437647
5.49727 35.0698 2.81144 -0.298944 -0.795793 -0.526637
4.54071 35.3628 2.79855 -0.0402327 -0.698507 -0.714471
3.44873 35.4072 2.77479 0.124427 -0.778831 -0.614768
2.44926 35.1295 2.73598 0.248031 -0.883634 -0.378425
2.025 34.8913 2.74495 0.537462 -0.787972 -0.292786
2.0965 36.5629 2.03349 0.276796 -0.149963 -0.949155
2.82608 36.6358 2.1931 0.192137 -0.128729 -0.972889
2.09867 37.5175 1.87409 0.177992 -0.142993 -0.973587
3.15449 37.5684 2.04535 0.143914 -0.23815 -0.960507
4.16194 37.5908 2.09963 -0.00528348 -0.290463 -0.956872
5.2491 37.5561 1.95016 -0.198195 -0.223664 -0.954302
5.9653 37.5205 1.79148 -0.268365 -0.162368 -0.949535
5.88993 38.4613 1.64338 -0.197433 -0.0312755 -0.979817
4.89744 38.4831 1.81783 -0.153643 -0.112982 -0.981646
3.76581 38.4926 1.91276 0.0126323 -0.150362 -0.98855
2.71101 38.4738 1.82238 0.10827 -0.0850244 -0.990479
2.13269 38.461 1.74401 0.147575 -0.0432611 -0.988104
2.09918 39.4041 1.72564 0.13688 0.0132214 -0.990499
3.1629 39.4152 1.83803 0.0782331 0.0157881 -0.99681
4.31549 39.419 1.85312 -0.106687 0.0151365 -0.994177
5.31036 39.4109 1.72324 -0.149711 0.0113852 -0.988664
5.98558 39.4049 1.6123 -0.191544 0.0260339 -0.981139
5.80398 40.3487 1.65442 -0.163554 -0.00298251 -0.98653
4.78655 40.3547 1.80142 -0.0978226 -0.0355795 -0.994568
3.78651 40.3561 1.86117 0.00062355 0.00137748 -0.999999
2.71344 40.3512 1.79701 0.0878195 -0.0188659 -0.995958
2.19878 40.3475 1.74683 0.105369 -0.0309107 -0.993953
2.1288 41.2887 1.7161 0.10523 -0.0382545 -0.993712
3.17397 41.2948 1.80594 0.056662 -0.0387423 -0.997641
4.18487 41.2963 1.82086 -0.0487179 -0.0186212 -0.998639
5.20439 41.2931 1.72411 -0.120356 -0.0254607 -0.992404
5.84097 41.2903 1.6424 -0.138305 -0.0203015 -0.990182
5.93332 42.2298 1.6112 -0.131297 -0.0155678 -0.991221
4.91262 42.2356 1.73181 -0.100569 -0.0405644 -0.994103
3.90335 42.2368 1.79328 0.0148075 -0.0449782 -0.998878
2.83712 42.2341 1.74733 0.0802871 -0.0473099 -0.995648
2.13496 42.2297 1.68449 0.0927842 -0.0462224 -0.994613
2.11516 43.1679 1.62523 0.10038 -0.0768105 -0.99198
3.21353 43.1776 1.71763 0.0636827 -0.0653579 -0.995828
4.22753 43.1809 1.7321 -0.0212171 -0.0996611 -0.994795
5.26079 43.1741 1.65045 -0.104401 -0.0990454 -0.989591
5.83394 43.1692 1.57898 -0.135037 -0.0614801 -0.988931
5.76996 44.1062 1.50587 -0.13628 -0.107502 -0.98482
4.5658 44.1172 1.61757 -0.0666713 -0.112222 -0.991444
3.48558 44.1176 1.63115 0.0363048 -0.107352 -0.993558
2.37092 44.1073 1.55802 0.083616 -0.111597 -0.99023
2.08956 44.1036 1.52856 0.10749 -0.125888 -0.986204
2.12362 45.0377 1.41401 0.109702 -0.126837 -0.985839
3.21587 45.053 1.50265 0.061307 -0.131284 -0.989447
4.42313 45.0555 1.51632 -0.0491942 -0.129562 -0.99035
5.53177 45.0437 1.42709 -0.0997763 -0.134631 -0.98586
5.92869 45.0374 1.38122 -0.126663 -0.145359 -0.981238
5.95064 45.9646 1.23034 -0.136079 -0.21093 -0.967983
4.90029 45.9845 1.34186 -0.0686713 -0.185634 -0.980216
3.78208 45.9912 1.38375 0.0187846 -0.17997 -0.983493
2.7806 45.9805 1.32912 0.0828644 -0.186252 -0.979001
2.06056 45.9662 1.25857 0.114269 -0.202921 -0.972505
2.14769 46.8841 1.05716 0.119482 -0.265 -0.956817
3.22678 46.909 1.15444 0.0810073 -0.277867 -0.957198
4.41338 46.9112 1.15808 -0.0466621 -0.252583 -0.96645
5.44313 46.8943 1.08265 -0.0919064 -0.25293 -0.963109
5.93244 46.8811 1.02394 -0.129699 -0.251977 -0.959002
5.70169 47.7944 0.802604 -0.0986449 -0.270278 -0.957715
4.60179 47.8172 0.895334 -0.0534922 -0.28171 -0.958007
3.50971 47.8167 0.902787 0.0341406 -0.287759 -0.957094
2.42403 47.7969 0.83193 0.0994812 -0.300545 -0.948565
2.31493 47.7941 0.821545 0.0980394 -0.301676 -0.948356
5.02124 36.6581 2.21841 -0.167245 -0.182916 -0.968799
5.86971 36.5805 1.9956 -0.285934 -0.160919 -0.944641
5.98754 36.5684 1.96201 -0.313573 -0.174712 -0.933353
