1.40812 35.5317 1.92881 0.383493 -0.205722 -0.90034
1.45599 36.584 1.92376 0.369393 -0.0370128 -0.928293
1.49126 37.6365 1.81563 0.254546 -0.12313 -0.95919
1.564 38.742 1.7341 0.215037 -0.038046 -0.975865
1.58216 39.7882 1.74641 0.160325 0.0152927 -0.986946
1.57363 40.8944 1.73923 0.167974 -0.0191213 -0.985561
1.58081 41.9148 1.71171 0.158973 -0.0302524 -0.986797
1.59601 43.0638 1.65848 0.139473 -0.0737611 -0.9873
1.56137 44.1384 1.54539 0.131762 -0.108198 -0.985359
1.57104 45.3246 1.39185 0.136081 -0.133494 -0.981663
1.55317 46.4329 1.17762 0.128378 -0.212651 -0.968657
1.54221 47.5062 0.898899 0.142789 -0.2678 -0.952835
1.88485 48.4306 0.660796 0.131108 -0.301542 -0.944312
2.9089 48.4754 0.754824 0.0729983 -0.290395 -0.954118
3.99739 48.5065 0.7903 0.0134536 -0.291221 -0.956365
5.08749 48.4881 0.74157 -0.0771338 -0.292841 -0.953024
6.10618 48.4158 0.642983 -0.133707 -0.323238 -0.936824
6.45572 47.5379 0.853171 -0.155009 -0.282629 -0.946241
6.44647 46.4486 1.14769 -0.153189 -0.218637 -0.963647
6.42697 45.3116 1.35205 -0.134949 -0.138183 -0.98117
6.41393 44.2405 1.48235 -0.165824 -0.103121 -0.980749
6.41645 43.1767 1.57504 -0.162531 -0.0551151 -0.985158
6.42922 42.1746 1.62055 -0.167552 -0.0234181 -0.985375
6.44389 41.141 1.62904 -0.169896 -0.0078565 -0.985421
6.43699 40.0224 1.62302 -0.208101 0.0281575 -0.977702
6.47275 38.9471 1.59617 -0.212986 -0.0201654 -0.976459
6.54144 37.7764 1.67014 -0.338139 -0.101251 -0.93537
6.5977 36.7145 1.78929 -0.457778 -0.108683 -0.882308
6.55653 35.5014 2.0118 -0.452292 -0.244668 -0.854982
5.80004 35.9076 2.24005 -0.325665 -0.153805 -0.931928
4.84374 36.3198 2.42739 -0.186609 -0.204848 -0.960841
3.76816 36.4593 2.5061 0.114622 -0.209164 -0.97009
2.78688 36.2234 2.35066 0.310783 -0.0896309 -0.946185
1.76983 35.6281 2.0608 0.341445 -0.20617 -0.905999
1.5683 35.4977 2.00481 0.383491 -0.205722 -0.90034
2.01798 34.9733 2.75117 0.538047 -0.79412 -0.28263
2.98767 35.4205 2.79641 0.251767 -0.808322 -0.524412
4.01569 35.5494 2.79863 -0.0366557 -0.629555 -0.730514
5.18967 35.3208 2.81897 -0.258689 -0.684616 -0.681455
6.21557 34.7503 2.80306 -0.520927 -0.644428 -0.559774
6.9867 34.0632 2.7971 -0.594241 -0.684017 -0.422874
7.50012 34.0321 2.21886 -0.580867 -0.498575 -0.629419
7.49117 35.005 1.71073 -0.43928 -0.347671 -0.828307
7.47556 35.9853 1.41874 -0.507772 -0.137535 -0.849952
7.47247 37.2134 1.30237 -0.445315 -0.0158845 -0.895233
7.43349 38.3316 1.31876 -0.306521 0.0137375 -0.950766
7.41967 39.3447 1.37263 -0.232759 0.0219767 -0.972266
7.41855 40.4354 1.39684 -0.242607 0.0158578 -0.969995
7.41971 41.4469 1.41321 -0.22923 0.0136037 -0.973251
7.4062 42.4779 1.42342 -0.189593 -0.025679 -0.981527
7.40153 43.5818 1.36172 -0.202313 -0.0846449 -0.975625
7.40439 44.5831 1.25854 -0.198061 -0.102601 -0.974801
7.40665 45.597 1.13236 -0.210003 -0.140328 -0.967578
7.4152 46.6111 0.943197 -0.186494 -0.219951 -0.957518
7.41869 47.6762 0.629941 -0.214377 -0.307618 -0.927046
7.37003 48.7027 0.28544 -0.218223 -0.330488 -0.918216
6.55125 49.3264 0.236669 -0.187233 -0.336132 -0.923016
5.4441 49.4228 0.386646 -0.115635 -0.332809 -0.935877
4.3248 49.4596 0.491262 -0.0572202 -0.313687 -0.947801
3.13439 49.4386 0.459049 0.0799842 -0.322789 -0.943085
2.11583 49.4263 0.344826 0.121209 -0.337169 -0.933606
1.05914 49.1706 0.239906 0.189693 -0.337808 -0.921902
0.580081 48.2651 0.464829 0.201723 -0.326635 -0.923373
0.573359 47.3082 0.788052 0.187108 -0.300223 -0.935338
0.581212 46.2276 1.06946 0.165209 -0.204687 -0.964784
0.574988 45.155 1.2472 0.175958 -0.143658 -0.973859
0.570971 43.9982 1.39588 0.179578 -0.117757 -0.976669
0.589749 42.8833 1.51303 0.145472 -0.0534992 -0.98741
0.591177 41.8526 1.54156 0.192011 -0.0149298 -0.981278
0.580751 40.824 1.55549 0.201919 -0.0107847 -0.979324
0.586336 39.7636 1.56564 0.187947 0.00582559 -0.982091
0.584482 38.712 1.51987 0.216908 0.0593583 -0.974386
0.553226 37.5931 1.48341 0.367049 0.012829 -0.930113
0.534518 36.4535 1.53531 0.440905 -0.0210918 -0.897306
0.524881 35.4284 1.52166 0.459001 0.0654059 -0.886025
0.433951 34.3355 1.78764 0.698152 -0.461106 -0.545039
0.4183 33.6339 2.55338 0.703075 -0.573468 -0.4205
1.12605 34.2353 2.80586 0.625617 -0.699341 -0.345726
1.89534 34.8873 2.75922 0.538042 -0.794124 -0.282628
2.07173 36.6788 2.10133 0.218092 -0.139926 -0.965845
2.7529 36.748 2.26401 0.260061 -0.169124 -0.950666
2.08774 37.628 1.95825 0.203403 -0.15993 -0.965945
3.15218 37.678 2.12466 0.126133 -0.226951 -0.965704
4.16584 37.7014 2.18711 -0.0569779 -0.245678 -0.967675
5.17661 37.6683 2.04423 -0.188723 -0.217763 -0.957582
5.92179 37.6309 1.87846 -0.266198 -0.19504 -0.94398
5.85147 38.5671 1.73866 -0.185578 -0.152207 -0.97077
4.85211 38.5868 1.90776 -0.152484 -0.0925071 -0.983967
3.78319 38.5979 2.0071 -0.0360455 -0.1277 -0.991158
2.69485 38.5768 1.90342 0.120169 -0.0807799 -0.989461
2.13149 38.5661 1.83404 0.143203 -0.111333 -0.983411
2.16579 39.5038 1.82726 0.113963 0.0260187 -0.993144
3.18849 39.513 1.93223 0.0732564 0.00685403 -0.99729
4.2429 39.5177 1.95206 -0.0802114 -0.00416588 -0.996769
5.29179 39.5103 1.82169 -0.145807 0.00603128 -0.989295
5.93532 39.5042 1.71353 -0.186652 0.0178584 -0.982264
5.74757 40.4417 1.74726 -0.165425 -0.00238227 -0.986219
4.70728 40.4472 1.89297 -0.106403 -0.0469858 -0.993212
3.57986 40.4474 1.9409 0.0366321 -0.0258835 -0.998994
2.49466 40.4412 1.86253 0.0971229 -0.0155678 -0.995151
2.07012 40.4385 1.81561 0.118894 -0.000208737 -0.992907
2.17603 41.3744 1.80304 0.0890087 -0.0381654 -0.995299
3.29569 41.3808 1.89051 0.0543203 -0.0336651 -0.997956
4.44219 41.3825 1.88716 -0.0716394 -0.0552167 -0.995901
5.47517 41.3782 1.77558 -0.122644 -0.020498 -0.992239
5.80003 41.3766 1.73218 -0.142108 -0.0196918 -0.989655
5.88641 42.3101 1.70371 -0.13447 -0.0189523 -0.990736
4.88195 42.3161 1.81789 -0.0967606 -0.0420497 -0.994419
3.86601 42.318 1.87754 0.0131405 -0.0443773 -0.998928
2.77704 42.3137 1.82427 0.0733441 -0.0426972 -0.996392
2.09768 42.3088 1.76662 0.110463 -0.0700764 -0.991407
2.25217 43.2432 1.72116 0.10524 -0.069704 -0.992001
3.25909 43.2518 1.80216 0.0649879 -0.0832277 -0.994409
4.34851 43.2539 1.8104 -0.0203763 -0.095164 -0.995253
5.38283 43.2466 1.72158 -0.112637 -0.08148 -0.99029
5.82098 43.2422 1.661 -0.130149 -0.0739256 -0.988735
5.85734 44.1709 1.57213 -0.134967 -0.10988 -0.984739
4.81762 44.1818 1.67838 -0.0742222 -0.109491 -0.991213
3.68493 44.1857 1.7169 0.0312344 -0.105563 -0.993922
2.66083 44.1773 1.66147 0.0758925 -0.113655 -0.990617
2.13195 44.1706 1.61275 0.106921 -0.109372 -0.988234
2.08995 45.0967 1.48812 0.111922 -0.125542 -0.985755
3.09828 45.1122 1.57727 0.0549586 -0.129508 -0.990054
4.16476 45.1166 1.60673 -0.0389947 -0.118098 -0.992236
5.39554 45.1056 1.51838 -0.0937044 -0.12619 -0.987571
5.93553 45.0962 1.45332 -0.147228 -0.124121 -0.981284
5.70846 46.0222 1.33591 -0.125357 -0.207141 -0.970246
4.69438 46.0409 1.43658 -0.0891549 -0.159349 -0.983188
3.62931 46.0445 1.46514 0.0200764 -0.210377 -0.977414
2.52938 46.0286 1.38896 0.102384 -0.190628 -0.976309
2.12165 46.0192 1.34387 0.127951 -0.195314 -0.972358
2.08073 46.929 1.13496 0.118872 -0.235318 -0.964622
3.15088 46.9515 1.22719 0.0929016 -0.262805 -0.960366
4.29048 46.9583 1.24774 -0.0314503 -0.266559 -0.963305
5.48532 46.939 1.15906 -0.0885192 -0.261026 -0.961265
5.91709 46.927 1.10574 -0.140486 -0.246969 -0.958786
5.88224 47.8283 0.8647 -0.12978 -0.267563 -0.95476
4.81341 47.8512 0.956957 -0.0766831 -0.295602 -0.952228
3.718 47.8572 0.987333 0.00226047 -0.26776 -0.963483
2.66657 47.8419 0.932875 0.0689676 -0.278242 -0.958032
2.28591 47.8321 0.897309 0.12336 -0.275284 -0.953415
5.05767 36.7716 2.28749 -0.228656 -0.215065 -0.949454
6.07264 36.6738 2.0146 -0.310454 -0.167416 -0.93573
6.11152 36.6702 2.00235 -0.342032 -0.15861 -0.926206
