1.44532 36.9469 1.99708 0.283056 -0.108672 -0.952242
1.46288 35.8804 2.04178 0.387745 0.00690937 -0.92086
2.08181 36.0568 2.27238 0.296603 -0.059874 -0.952103
3.09692 36.4841 2.48825 0.233973 -0.143813 -0.961548
4.15759 36.6483 2.5673 -0.0295281 -0.281158 -0.959207
5.28936 36.327 2.42705 -0.29643 -0.179539 -0.937831
6.16829 35.8428 2.21381 -0.349752 -0.197035 -0.915888
6.63128 36.1956 1.94663 -0.436245 -0.130964 -0.890246
6.58815 37.3075 1.81852 -0.424778 -0.0982114 -0.899915
6.4939 38.435 1.70918 -0.254632 -0.0993096 -0.961536
6.44805 39.5288 1.70138 -0.205238 0.00940362 -0.978601
6.45604 40.5744 1.7105 -0.210542 0.00480487 -0.977566
6.43965 41.6592 1.70816 -0.192409 -0.00882049 -0.981234
6.43781 42.692 1.68494 -0.160246 -0.031432 -0.986281
6.4298 43.8639 1.60461 -0.166359 -0.105827 -0.98037
6.42855 45.0544 1.477 -0.164452 -0.119545 -0.979114
6.42072 46.055 1.32333 -0.174886 -0.171869 -0.969472
6.42046 47.0935 1.08001 -0.152483 -0.249921 -0.956184
6.46065 48.0682 0.788641 -0.151859 -0.285953 -0.946134
5.7019 48.487 0.765466 -0.126376 -0.291978 -0.947722
4.6575 48.4815 0.864225 -0.0630949 -0.306543 -0.949763
3.52109 48.5063 0.867209 0.0231683 -0.293558 -0.95566
2.51803 48.4689 0.809145 0.100332 -0.287572 -0.952489
1.56127 48.2697 0.752522 0.166797 -0.335201 -0.927264
1.54826 47.2536 1.05877 0.144924 -0.267826 -0.952505
1.57532 46.1658 1.33786 0.121306 -0.229603 -0.965564
1.57169 45.0446 1.5203 0.150995 -0.134893 -0.979288
1.56081 43.9182 1.65376 0.14696 -0.111807 -0.982803
1.57336 42.6794 1.76644 0.128053 -0.0805914 -0.988309
1.57312 41.5907 1.80323 0.15063 -0.0319712 -0.988053
1.55349 40.5492 1.82569 0.149098 -0.0202476 -0.98861
1.54377 39.4367 1.81951 0.176275 0.0229753 -0.984073
1.52685 38.32 1.84706 0.199048 -0.0675578 -0.977658
1.45702 37.1918 1.96279 0.279767 -0.150754 -0.948158
1.45224 37.1003 1.97593 0.276705 -0.147146 -0.949609
0.527061 37.045 1.59834 0.434448 -0.0579726 -0.89872
0.545883 35.9276 1.67481 0.390752 -0.0117537 -0.920421
0.485169 34.8585 1.67406 0.577377 -0.273347 -0.767829
0.43784 33.9848 2.28443 0.659682 -0.584508 -0.468881
0.811002 34.0462 2.80056 0.669436 -0.640564 -0.37295
1.67611 34.812 2.76588 0.619124 -0.710675 -0.334105
2.56218 35.3802 2.78916 0.258767 -0.698279 -0.649038
3.63152 35.7118 2.83766 0.217075 -0.505644 -0.828359
4.66659 35.6086 2.85451 -0.208994 -0.551648 -0.797078
5.64497 35.2178 2.79994 -0.337306 -0.620139 -0.708274
6.53849 34.5393 2.81438 -0.571713 -0.629388 -0.522662
7.34667 33.9123 2.80562 -0.567119 -0.714391 -0.401174
7.5145 34.4985 2.07674 -0.506468 -0.44389 -0.737517
7.48141 35.4328 1.66078 -0.474613 -0.282765 -0.831702
7.49202 36.5692 1.44001 -0.469548 -0.103712 -0.876795
7.45049 37.7709 1.39322 -0.388724 -0.00912784 -0.920866
7.42019 38.8318 1.43474 -0.258844 0.0558834 -0.964301
7.4094 39.8316 1.47633 -0.23944 0.026032 -0.970562
7.42533 40.9375 1.49047 -0.237933 0.0149793 -0.971155
7.41893 42.0388 1.50773 -0.221073 0.011182 -0.975189
7.42341 43.0665 1.48761 -0.175154 -0.0801346 -0.981275
7.42027 44.195 1.38306 -0.197823 -0.100492 -0.975073
7.40589 45.2979 1.26221 -0.204368 -0.120937 -0.97133
7.3914 46.3793 1.08882 -0.184217 -0.193545 -0.963641
7.41665 47.3632 0.823991 -0.200252 -0.295655 -0.93407
7.43833 48.3429 0.491255 -0.220516 -0.328741 -0.918315
7.12522 49.209 0.24943 -0.201647 -0.338458 -0.919085
6.04986 49.4411 0.381254 -0.160293 -0.346714 -0.924173
4.98161 49.4365 0.527578 -0.0990845 -0.312007 -0.944834
3.75957 49.4513 0.588732 0.0258415 -0.295922 -0.954863
2.7155 49.4438 0.503981 0.105438 -0.316591 -0.942602
1.68956 49.4447 0.353175 0.168702 -0.341995 -0.924368
0.692706 49.1433 0.264282 0.198263 -0.336433 -0.9206
0.584293 48.1064 0.61605 0.188196 -0.319175 -0.92869
0.585176 47.0612 0.953113 0.162961 -0.286241 -0.944197
0.579753 46.0709 1.18685 0.16848 -0.181704 -0.968813
0.588102 44.9059 1.37154 0.178062 -0.132942 -0.974998
0.567123 43.7756 1.50739 0.181229 -0.116391 -0.976525
0.569595 42.7264 1.59811 0.175397 -0.0444264 -0.983495
0.579362 41.6049 1.62706 0.1902 -0.0124368 -0.981664
0.560618 40.4474 1.64096 0.200787 -0.00884197 -0.979595
0.568682 39.4345 1.64357 0.180536 0.00725246 -0.983474
0.573345 38.3636 1.5956 0.26045 0.0185988 -0.964726
0.522352 37.2394 1.58655 0.433127 -0.0440973 -0.900254
0.525464 37.1359 1.59312 0.433127 -0.0440977 -0.900253
2.02967 36.7988 2.17726 0.241935 -0.151159 -0.958446
2.74588 36.861 2.33409 0.207562 -0.185085 -0.960553
2.1432 37.7446 2.05051 0.179955 -0.164324 -0.969853
3.19789 37.7887 2.20978 0.131816 -0.201136 -0.970654
4.31215 37.8049 2.24857 -0.0916762 -0.248632 -0.96425
5.37805 37.7653 2.07933 -0.192424 -0.209989 -0.958581
5.97781 37.7375 1.95196 -0.214423 -0.158511 -0.963793
5.8463 38.6698 1.83519 -0.225861 -0.078024 -0.97103
4.85991 38.6898 1.99358 -0.125384 -0.102137 -0.986837
3.73702 38.6998 2.08537 -0.0254622 -0.151055 -0.988197
2.64472 38.6817 1.99004 0.0954508 -0.0596279 -0.993647
2.04357 38.6699 1.91216 0.166934 -0.083474 -0.982428
2.10098 39.6013 1.90763 0.124079 0.0152616 -0.992155
3.28064 39.6133 2.02122 0.0701153 -0.00560147 -0.997523
4.28621 39.6151 2.03195 -0.0735796 0.00384259 -0.997282
5.36323 39.6062 1.89821 -0.145727 0.0165636 -0.989186
5.92043 39.6007 1.80856 -0.179956 0.0297546 -0.983225
5.90384 40.5314 1.8123 -0.171134 -0.00505498 -0.985235
4.8334 40.5378 1.96173 -0.109638 -0.00786557 -0.993941
3.81961 40.5401 2.03496 0.0170286 -0.0304091 -0.999392
2.78572 40.536 1.9745 0.0873247 -0.0222671 -0.995931
2.13373 40.5316 1.90585 0.116583 -0.0226116 -0.992924
2.13213 41.4599 1.88654 0.103318 -0.0279898 -0.994254
3.13165 41.4651 1.9669 0.0611446 -0.0446995 -0.997128
4.14064 41.4674 1.9958 -0.0379067 -0.0259741 -0.998944
5.33623 41.463 1.87469 -0.127166 -0.0273028 -0.991506
5.93425 41.46 1.79898 -0.13671 -0.0322448 -0.990086
5.92038 42.3876 1.77772 -0.131629 -0.0425664 -0.990385
4.88449 42.3939 1.90137 -0.111099 -0.0414816 -0.992943
3.76359 42.3963 1.96269 0.0146732 -0.0292577 -0.999464
2.56977 42.3904 1.89306 0.0867018 -0.0586173 -0.994508
2.12868 42.3876 1.85555 0.0915244 -0.0438013 -0.994839
2.2252 43.3148 1.7969 0.104985 -0.0703032 -0.991986
3.37029 43.3248 1.89065 0.0442151 -0.0691234 -0.996628
4.49799 43.3243 1.87958 -0.0575205 -0.112132 -0.992027
5.58431 43.3165 1.77648 -0.12998 -0.0884302 -0.987565
5.85796 43.3138 1.73981 -0.126657 -0.0823496 -0.988522
5.88413 44.2356 1.64751 -0.145935 -0.117592 -0.982281
4.6911 44.2479 1.7662 -0.0711911 -0.113658 -0.990966
3.45317 44.2485 1.7858 0.0324368 -0.116497 -0.992661
2.3738 44.2395 1.71551 0.0909148 -0.121876 -0.988373
2.11278 44.2362 1.68888 0.119402 -0.117821 -0.98583
2.08252 45.1556 1.57211 0.11624 -0.145506 -0.982505
3.21409 45.1711 1.66347 0.0620783 -0.142627 -0.987828
4.31363 45.1744 1.67541 -0.0576548 -0.128947 -0.989974
5.33476 45.165 1.60161 -0.088887 -0.10807 -0.990162
5.81585 45.158 1.55368 -0.144665 -0.145456 -0.978731
5.90773 46.0707 1.39239 -0.113589 -0.219341 -0.969013
4.88093 46.0898 1.49949 -0.0653476 -0.203505 -0.976891
3.77292 46.0959 1.53915 0.0176658 -0.185227 -0.982537
2.59778 46.0828 1.47449 0.0667311 -0.188109 -0.979879
2.28565 46.0749 1.43593 0.12766 -0.194284 -0.972603
2.11405 46.9751 1.20844 0.098805 -0.250847 -0.962971
3.28845 47 1.30666 0.0753415 -0.250052 -0.965297
4.40176 47.0048 1.31929 -0.0138039 -0.253698 -0.967185
5.51037 46.9837 1.22817 -0.100803 -0.253987 -0.96194
5.79585 46.977 1.198 -0.107499 -0.255431 -0.960832
5.85354 47.8678 0.939807 -0.127464 -0.270451 -0.954258
4.7937 47.8918 1.03583 -0.0686678 -0.280932 -0.957268
3.74734 47.8964 1.06258 0.0150952 -0.295751 -0.955146
2.7026 47.8817 1.00793 0.0793742 -0.293197 -0.952752
2.18323 47.8695 0.963156 0.122767 -0.270502 -0.95486
5.27833 36.868 2.31466 -0.23758 -0.229223 -0.943935
5.95126 36.7991 2.12965 -0.291926 -0.203351 -0.934573
6.03184 36.7901 2.10645 -0.291928 -0.203351 -0.934573
