1.48476 35.8899 2.1718 0.394443 0.0179847 -0.918148
2.33357 36.3569 2.42477 0.283011 -0.120173 -0.95141
3.26515 36.6978 2.60487 0.186374 -0.259939 -0.945308
4.40382 36.7122 2.65396 -0.150164 -0.298515 -0.942085
5.46791 36.3758 2.46468 -0.255494 -0.197325 -0.946377
6.40394 35.8389 2.23031 -0.416163 -0.203281 -0.883808
6.5552 36.7585 2.01276 -0.390788 -0.138767 -0.909961
6.53074 37.7769 1.88388 -0.34054 -0.122753 -0.932037
6.4737 39.0155 1.78223 -0.206228 -0.0318925 -0.97786
6.43981 40.0315 1.79907 -0.205554 0.00392529 -0.97853
6.43507 41.0334 1.80494 -0.168008 -0.000882606 -0.985782
6.41624 42.0575 1.79581 -0.173765 -0.00624353 -0.984742
6.43147 43.0989 1.7537 -0.16749 -0.0482544 -0.984684
6.4258 44.1828 1.65944 -0.168044 -0.0922838 -0.98145
6.39493 45.2755 1.53572 -0.164622 -0.128313 -0.977968
6.41798 46.3091 1.36039 -0.140032 -0.206728 -0.968186
6.43575 47.3127 1.10518 -0.148341 -0.266915 -0.952235
6.38523 48.3737 0.788676 -0.182989 -0.317237 -0.930495
5.35365 48.4937 0.888814 -0.1046 -0.284374 -0.95299
4.33457 48.488 0.971416 -0.0257802 -0.275313 -0.961009
3.20095 48.4866 0.951004 0.0617806 -0.292119 -0.954378
2.15504 48.5181 0.841978 0.122658 -0.295491 -0.94742
1.55479 47.9436 0.943773 0.135304 -0.292888 -0.946525
1.57412 46.906 1.24144 0.14096 -0.23812 -0.960952
1.59043 45.8823 1.47529 0.147468 -0.184234 -0.971757
1.59415 44.8009 1.63963 0.135398 -0.130627 -0.982143
1.5666 43.6645 1.77148 0.116986 -0.108 -0.987244
1.59155 42.5599 1.86049 0.136682 -0.0530607 -0.988946
1.56306 41.5368 1.89323 0.15692 -0.0362171 -0.9869
1.56115 40.4985 1.91553 0.146102 -0.00559631 -0.989225
1.57374 39.4726 1.9126 0.156803 0.00468685 -0.987619
1.52455 38.3392 1.94618 0.226086 -0.10992 -0.967886
1.48918 37.3164 2.0714 0.27218 -0.096803 -0.957365
1.48759 36.268 2.17445 0.322524 -0.0346423 -0.944566
1.49841 36.0151 2.18286 0.369884 0.0130338 -0.928551
0.552909 36.0244 1.7883 0.395063 -0.0171824 -0.918328
0.541468 37.0328 1.72117 0.436845 -0.0489063 -0.898206
0.542457 38.1423 1.69068 0.37813 0.0370996 -0.925009
0.581807 39.2552 1.72429 0.194028 0.0450263 -0.979962
0.571607 40.3219 1.73337 0.2028 -0.0170777 -0.979071
0.59747 41.3406 1.72328 0.195194 -0.0138205 -0.980667
0.584137 42.3667 1.70436 0.181166 -0.0331661 -0.982762
0.579742 43.416 1.63802 0.172872 -0.105583 -0.979193
0.597963 44.5054 1.51001 0.179086 -0.118569 -0.976663
0.614215 45.5976 1.36747 0.190218 -0.141599 -0.971477
0.595467 46.6497 1.15681 0.167949 -0.256724 -0.951678
0.585088 47.7203 0.839896 0.176681 -0.277794 -0.944253
0.573007 48.6938 0.494689 0.202239 -0.333504 -0.920801
1.21657 49.4319 0.358087 0.185555 -0.341216 -0.921488
2.2529 49.4408 0.533591 0.13703 -0.333247 -0.932829
3.3983 49.4349 0.657487 0.0430846 -0.323484 -0.945252
4.51957 49.4405 0.65742 -0.0724562 -0.329523 -0.941353
5.55869 49.4356 0.549549 -0.142839 -0.334069 -0.931663
6.57126 49.4212 0.380257 -0.189925 -0.334731 -0.922958
7.40971 49.025 0.344744 -0.207641 -0.340059 -0.917194
7.41476 47.9809 0.71198 -0.199965 -0.317393 -0.926971
7.40589 47.0065 1.01978 -0.178924 -0.268528 -0.946509
7.39231 45.962 1.25138 -0.188565 -0.17699 -0.96598
7.39922 44.9016 1.39528 -0.199214 -0.109008 -0.973874
7.42286 43.704 1.51931 -0.200673 -0.0966182 -0.97487
7.40545 42.6923 1.58847 -0.195352 -0.024652 -0.980386
7.40553 41.6495 1.59033 -0.223051 0.011534 -0.974739
7.42859 40.4857 1.57013 -0.240181 0.0118414 -0.970653
7.44005 39.3432 1.542 -0.24818 0.0323095 -0.968175
7.43644 38.2549 1.51108 -0.336306 0.00402454 -0.940873
7.44888 37.2479 1.51847 -0.451238 -0.0276321 -0.891976
7.47991 36.2382 1.5856 -0.496993 -0.0857185 -0.863511
7.4785 35.2118 1.85603 -0.451032 -0.34826 -0.821757
7.50649 34.201 2.37404 -0.421183 -0.463839 -0.779396
7.01922 34.2575 2.8294 -0.551331 -0.682712 -0.479268
6.24541 34.9533 2.80276 -0.553913 -0.676069 -0.479745
5.29233 35.4902 2.84563 -0.200293 -0.684299 -0.701154
4.32311 35.7849 2.91377 -0.128784 -0.380208 -0.915891
3.28859 35.749 2.87947 0.32411 -0.382329 -0.845744
2.28952 35.3589 2.77606 0.407749 -0.630308 -0.660646
1.48615 34.7524 2.7687 0.569985 -0.666143 -0.474233
0.729274 34.0982 2.78709 0.690892 -0.591814 -0.41524
0.471172 34.2407 2.23899 0.6545 -0.541604 -0.527537
0.510457 35.1921 1.76763 0.430317 0.00269602 -0.902674
0.551094 35.8605 1.78784 0.391144 0.00695874 -0.920255
1.9997 36.8861 2.26985 0.236963 -0.091489 -0.967201
2.38687 36.9222 2.35405 0.185187 -0.199156 -0.962311
2.13225 37.8285 2.13238 0.150724 -0.162475 -0.975133
3.21633 37.8724 2.29012 0.109179 -0.197742 -0.974155
4.31704 37.8881 2.33173 -0.0969733 -0.257025 -0.961527
5.34256 37.8486 2.16166 -0.184685 -0.204817 -0.961219
6.04089 37.8196 2.02599 -0.237288 -0.176534 -0.955264
5.90963 38.749 1.90734 -0.185214 -0.0437855 -0.981722
4.84812 38.7714 2.08983 -0.12086 -0.140166 -0.982724
3.83659 38.7821 2.18271 0.001874 -0.156494 -0.987677
2.78934 38.766 2.09631 0.0930622 -0.0605479 -0.993818
2.09037 38.7523 2.0059 0.153998 -0.023298 -0.987796
2.1637 39.68 2.0048 0.13556 0.00655239 -0.990747
3.29304 39.6908 2.1161 0.0605571 -0.00381567 -0.998157
4.35419 39.692 2.11841 -0.0567459 -0.0329167 -0.997846
5.46444 39.6828 1.9749 -0.154512 0.00782009 -0.98796
5.86737 39.6788 1.90903 -0.170804 0.0159169 -0.985176
5.92107 40.6042 1.89294 -0.164742 -0.00106631 -0.986336
4.88697 40.6101 2.03798 -0.120511 -0.0290363 -0.992287
3.88448 40.6136 2.11774 0.0298881 -0.0471871 -0.998439
2.80315 40.6093 2.05585 0.0975821 -0.0255198 -0.9949
2.06437 40.6042 1.98266 0.105109 -0.0126274 -0.994381
2.07931 41.5286 1.96065 0.109259 -0.0367151 -0.993335
3.10096 41.5347 2.05099 0.0632188 -0.0366431 -0.997327
4.21546 41.5367 2.07636 -0.0611364 -0.0505725 -0.996847
5.26309 41.5324 1.97098 -0.117902 -0.0209772 -0.992804
5.73256 41.5297 1.91311 -0.131597 -0.0147178 -0.991194
5.90443 42.4516 1.86903 -0.126361 -0.0184101 -0.991813
4.86028 42.4583 1.98828 -0.11366 -0.0234423 -0.993243
3.82352 42.461 2.05119 -0.0284843 -0.0326313 -0.999061
2.821 42.4573 1.99802 0.0727303 -0.0328343 -0.996811
2.15224 42.4523 1.93656 0.122798 -0.0569784 -0.990795
2.26556 43.374 1.87718 0.108192 -0.0843521 -0.990545
3.27299 43.3821 1.95739 0.0464522 -0.0938173 -0.994505
4.42554 43.3835 1.9595 -0.0499586 -0.12289 -0.991162
5.49665 43.3764 1.86568 -0.130403 -0.0920385 -0.98718
5.92901 43.3725 1.81322 -0.10934 -0.0954317 -0.989413
5.91257 44.2898 1.72158 -0.125225 -0.106843 -0.986359
4.90441 44.3017 1.82826 -0.0936649 -0.122746 -0.988008
3.82359 44.3059 1.8745 0.0348784 -0.127878 -0.991176
2.80924 44.299 1.82678 0.0723069 -0.130319 -0.988832
2.08855 44.2906 1.76529 0.106778 -0.118997 -0.987136
2.14172 45.2073 1.65448 0.10879 -0.137007 -0.984578
3.1387 45.2213 1.73745 0.0640587 -0.127257 -0.989799
4.15042 45.2258 1.76208 -0.0322527 -0.115748 -0.992755
5.36735 45.2141 1.67333 -0.0918534 -0.138121 -0.986147
5.6462 45.2103 1.64721 -0.120583 -0.122272 -0.985144
5.73512 46.1218 1.50057 -0.138677 -0.158412 -0.977586
4.69217 46.1393 1.59589 -0.0668893 -0.186596 -0.980157
3.65086 46.1419 1.61888 0.0277539 -0.164416 -0.986001
2.61506 46.1286 1.5581 0.110628 -0.200679 -0.973391
2.18211 46.119 1.51003 0.113084 -0.185282 -0.976157
2.08078 47.0147 1.28642 0.105867 -0.244482 -0.963857
3.23187 47.039 1.3829 0.0596391 -0.254847 -0.965141
4.25749 47.0454 1.40109 -0.0119808 -0.256278 -0.966529
5.35152 47.0269 1.3207 -0.0976589 -0.250925 -0.963068
5.74111 47.0183 1.28187 -0.103399 -0.255384 -0.961295
5.80901 47.9035 1.02103 -0.126128 -0.268769 -0.954911
4.75873 47.9276 1.11732 -0.0716326 -0.278959 -0.957628
3.62901 47.9336 1.14366 0.0323147 -0.294114 -0.955224
2.49649 47.9134 1.07071 0.0924498 -0.2743 -0.95719
2.22741 47.9053 1.04218 0.114747 -0.274748 -0.954645
5.40111 36.942 2.36841 -0.2382 -0.235033 -0.942348
5.96708 36.8899 2.22166 -0.306357 -0.176465 -0.935417
5.97278 36.8893 2.21991 -0.306359 -0.176466 -0.935417
