1.48005 37.1796 2.1962 0.329735 -0.0958192 -0.939035
1.53599 36.0865 2.30465 0.354593 -0.0820897 -0.930295
2.47282 36.5855 2.52556 0.20454 -0.162544 -0.965268
3.50414 36.8802 2.69696 0.123628 -0.272093 -0.954296
4.52096 36.8672 2.68136 -0.185053 -0.235119 -0.953906
5.62744 36.4972 2.49427 -0.272134 -0.178328 -0.945337
6.52004 36.0366 2.23293 -0.428799 -0.196173 -0.881778
6.56577 37.1326 2.06519 -0.400497 -0.111469 -0.909493
6.49097 38.1442 1.93018 -0.265165 -0.0882818 -0.960153
6.47466 39.2964 1.86919 -0.245074 0.00129992 -0.969504
6.45918 40.3336 1.88319 -0.194739 0.0112851 -0.98079
6.43315 41.4558 1.88399 -0.171601 -0.0180776 -0.985001
6.42186 42.6715 1.85988 -0.170735 -0.0284014 -0.984821
6.44303 43.7567 1.78671 -0.165767 -0.103349 -0.980735
6.44557 45.0159 1.64533 -0.158747 -0.113835 -0.980706
6.42093 46.058 1.49631 -0.156315 -0.185545 -0.969803
6.45516 47.179 1.22884 -0.14474 -0.263696 -0.95359
6.41683 48.2609 0.907782 -0.155992 -0.315287 -0.935979
5.46014 48.4849 0.96911 -0.115247 -0.289588 -0.950188
4.41553 48.4836 1.06115 -0.0428847 -0.287295 -0.956429
3.36171 48.4634 1.05959 0.0615876 -0.286098 -0.956219
2.27877 48.4873 0.953931 0.107096 -0.295733 -0.949167
1.56084 47.9324 1.03546 0.144118 -0.286471 -0.94712
1.60111 46.9535 1.32338 0.14276 -0.244778 -0.959012
1.56613 45.8815 1.56088 0.135394 -0.158836 -0.977977
1.56512 44.8263 1.71674 0.152023 -0.133148 -0.979367
1.58116 43.7186 1.85089 0.149107 -0.111083 -0.982562
1.58287 42.6007 1.94388 0.126447 -0.0369323 -0.991283
1.5819 41.5146 1.98241 0.160369 -0.0231446 -0.986786
1.54825 40.4846 1.99852 0.167957 -0.0231867 -0.985522
1.57393 39.3526 2.00079 0.162267 0.00605797 -0.986728
1.54984 38.3071 2.05716 0.202269 -0.128532 -0.969844
1.48072 37.2627 2.18675 0.32784 -0.133812 -0.934801
0.535126 37.1868 1.8153 0.438061 -0.0630258 -0.896733
0.549168 36.0689 1.9006 0.400986 -0.0137194 -0.915981
0.490179 35.038 1.90454 0.47369 -0.201468 -0.838889
0.457118 34.2066 2.44868 0.636627 -0.588093 -0.498851
1.0556 34.5287 2.79444 0.572438 -0.695379 -0.434468
1.84282 35.1549 2.77126 0.435388 -0.68909 -0.563493
2.81885 35.6898 2.83281 0.26363 -0.564706 -0.766249
3.78751 35.9539 2.97332 0.0801819 -0.327176 -0.941555
4.7848 35.8246 2.94243 -0.305187 -0.334962 -0.891438
5.73505 35.4431 2.83605 -0.407693 -0.582559 -0.702141
6.61931 34.7655 2.8047 -0.541977 -0.625971 -0.560733
7.42645 34.0746 2.79422 -0.588733 -0.652664 -0.471429
7.4811 34.9653 2.09022 -0.502166 -0.378418 -0.777579
7.49248 35.9671 1.7442 -0.487017 -0.202174 -0.84967
7.45708 37.1688 1.62894 -0.455506 -0.0504428 -0.888802
7.44094 38.2137 1.60328 -0.368237 0.0239695 -0.929423
7.44634 39.2771 1.62679 -0.244802 0.0270386 -0.969196
7.43882 40.4574 1.65617 -0.243223 0.0149399 -0.969855
7.43023 41.61 1.67303 -0.228323 0.0135403 -0.973489
7.42372 42.7178 1.67077 -0.198981 -0.0202238 -0.979795
7.42303 43.798 1.59616 -0.191471 -0.0963084 -0.976761
7.43231 44.9906 1.46517 -0.193196 -0.118759 -0.973927
7.4202 45.9846 1.33527 -0.19207 -0.177109 -0.965268
7.44083 46.9725 1.11196 -0.176278 -0.266804 -0.94736
7.4292 47.9466 0.813053 -0.199374 -0.31972 -0.926296
7.41716 49.0217 0.435393 -0.20269 -0.332744 -0.920965
6.58133 49.4369 0.4644 -0.190474 -0.336295 -0.922263
5.57123 49.4331 0.637388 -0.134671 -0.325334 -0.93596
4.52977 49.4318 0.7594 -0.0773646 -0.307468 -0.948191
3.52709 49.4264 0.766356 0.0725632 -0.295456 -0.952596
2.29929 49.4548 0.627342 0.131789 -0.333024 -0.933524
1.30451 49.4441 0.461967 0.182528 -0.334014 -0.924717
0.570739 49.0777 0.446663 0.194842 -0.337959 -0.920772
0.572803 48.123 0.789524 0.181995 -0.319471 -0.92995
0.587856 47.1298 1.1143 0.174591 -0.271087 -0.946589
0.590161 46.0544 1.37432 0.17643 -0.190097 -0.965782
0.567947 45.0631 1.52058 0.175477 -0.135051 -0.975156
0.595492 44.0332 1.65261 0.176347 -0.11754 -0.977258
0.586297 43.0134 1.75474 0.162578 -0.0706619 -0.98416
0.587163 41.9209 1.79875 0.185883 -0.0191739 -0.982385
0.565629 40.8744 1.81436 0.198174 -0.0167122 -0.980021
0.574663 39.8236 1.82666 0.195016 0.00379461 -0.980725
0.5837 38.7639 1.79171 0.221401 0.0124036 -0.974732
0.543345 37.6541 1.78917 0.396346 -0.0758276 -0.914965
0.535481 37.3672 1.8028 0.438061 -0.0630254 -0.896733
2.19067 37.9138 2.22267 0.154731 -0.182314 -0.970989
3.23654 37.9517 2.37315 0.109564 -0.192992 -0.975064
4.33821 37.9626 2.40733 -0.114102 -0.245088 -0.962763
5.34586 37.9264 2.24609 -0.203031 -0.209114 -0.956582
5.98927 37.8988 2.10896 -0.237666 -0.19344 -0.951891
5.90182 38.8241 1.98973 -0.190578 -0.072939 -0.978959
4.87792 38.8459 2.17755 -0.147048 -0.125313 -0.981159
3.71689 38.8541 2.25163 0.0526263 -0.162717 -0.985268
2.702 38.842 2.17309 0.110096 -0.0651814 -0.991781
2.12389 38.8321 2.09977 0.169406 -0.0802888 -0.982271
2.15295 39.754 2.09243 0.115494 0.0111267 -0.993246
3.27878 39.7629 2.1986 0.0759554 -0.0230535 -0.996845
4.33578 39.7641 2.20764 -0.068149 -0.0302366 -0.997217
5.55245 39.7531 2.04793 -0.153841 0.0109739 -0.988035
5.86021 39.7501 1.99735 -0.191032 0.00246123 -0.981581
5.94245 40.6717 1.97733 -0.168219 0.00208372 -0.985747
4.84573 40.6789 2.12934 -0.118103 -0.0285307 -0.992591
3.80419 40.6822 2.19918 0.03339 -0.0429482 -0.998519
2.77963 40.6779 2.13807 0.0886203 -0.0388007 -0.995309
2.10699 40.6741 2.07209 0.103084 -0.0219826 -0.99443
2.18665 41.5945 2.05819 0.103371 -0.0312422 -0.994152
3.19643 41.5985 2.13843 0.0723612 -0.0431622 -0.996444
4.26366 41.6002 2.15171 -0.0599272 -0.0320452 -0.997688
5.38006 41.5953 2.04013 -0.119369 -0.0188536 -0.992671
5.89527 41.5924 1.97208 -0.148285 -0.0118358 -0.988874
5.91073 42.5115 1.95281 -0.162248 -0.0461516 -0.98567
4.85028 42.5185 2.07602 -0.0982822 -0.0222006 -0.994911
3.85179 42.5221 2.14033 0.0429039 -0.0143605 -0.998976
2.68374 42.5171 2.07408 0.0763871 -0.0514491 -0.99575
2.10283 42.5129 2.01252 0.123415 -0.0385645 -0.991606
2.18976 43.4301 1.95321 0.088516 -0.10899 -0.990094
3.30661 43.4389 2.04226 0.0683011 -0.109444 -0.991644
4.34298 43.4406 2.04384 -0.0667974 -0.0743906 -0.99499
5.49553 43.4328 1.94481 -0.0982782 -0.0808722 -0.991867
5.85142 43.4295 1.90492 -0.124114 -0.080533 -0.988995
5.86027 44.3431 1.80657 -0.111431 -0.108832 -0.987795
4.81069 44.3547 1.91467 -0.0895651 -0.11569 -0.989239
3.71614 44.3586 1.9572 -3.85274e-05 -0.141169 -0.989985
2.70281 44.3506 1.90015 0.0828354 -0.118956 -0.989438
2.17166 44.3444 1.852 0.104729 -0.109819 -0.988419
2.17949 45.2567 1.7356 0.0981305 -0.13662 -0.985751
3.20838 45.2725 1.81748 0.0687495 -0.124799 -0.989797
4.37396 45.2748 1.83089 -0.0566517 -0.110362 -0.992276
5.45726 45.263 1.74543 -0.124571 -0.128218 -0.983891
5.83976 45.2556 1.69816 -0.126121 -0.129507 -0.983525
5.79626 46.1645 1.5659 -0.137757 -0.208518 -0.968268
4.72527 46.1842 1.66919 -0.0633409 -0.184754 -0.980742
3.55299 46.1886 1.69952 0.0682993 -0.20752 -0.975844
2.49165 46.1725 1.62208 0.0832491 -0.162552 -0.983182
2.19496 46.1659 1.59083 0.110626 -0.188632 -0.975797
2.25947 47.061 1.37952 0.088714 -0.255127 -0.962829
3.3383 47.0834 1.46445 0.042461 -0.284502 -0.957735
4.47056 47.0867 1.47301 -0.0400238 -0.275681 -0.960416
5.66113 47.0621 1.36777 -0.102809 -0.267078 -0.958175
5.93833 47.056 1.33971 -0.115329 -0.27377 -0.954856
5.76532 47.9437 1.10445 -0.112307 -0.305962 -0.945396
4.63789 47.9671 1.20069 -0.0651683 -0.289846 -0.954852
3.62277 47.9712 1.21869 0.00952236 -0.290451 -0.956842
2.49418 47.9509 1.14718 0.0879052 -0.302024 -0.949239
2.20343 47.9428 1.11813 0.103508 -0.301937 -0.947692
5.79804 36.9863 2.35163 -0.204062 -0.187611 -0.960813
5.88847 36.9799 2.33368 -0.204063 -0.187611 -0.960812
5.91251 36.9784 2.32887 -0.255027 -0.155446 -0.954357
