1.47365 36.9928 2.5066 0.261209 -0.118856 -0.957753
2.12081 36.8586 2.7048 0.247025 -0.125156 -0.960836
3.06099 37.4999 2.75136 0.175915 -0.206959 -0.962393
4.07342 37.7932 2.79397 -0.0297191 -0.254641 -0.964499
5.04535 37.4627 2.71865 -0.18774 -0.226404 -0.955769
5.93993 36.8089 2.67125 -0.24014 -0.185833 -0.952342
6.56891 36.8921 2.41036 -0.38367 -0.171388 -0.907427
6.48103 38.0633 2.2615 -0.311487 -0.191017 -0.929457
6.44178 39.114 2.13997 -0.243066 -0.0272922 -0.968783
6.44654 40.1859 2.14848 -0.208736 0.0174337 -0.977817
6.45068 41.2265 2.14341 -0.180356 -0.00583907 -0.983582
6.44877 42.35 2.12478 -0.166078 -0.0369355 -0.985421
6.43158 43.3523 2.07873 -0.152412 -0.0748429 -0.985479
6.43433 44.491 1.9627 -0.162431 -0.107707 -0.980824
6.43522 45.6121 1.82209 -0.161237 -0.142855 -0.976522
6.43586 46.7516 1.61136 -0.154993 -0.242447 -0.957667
6.43757 47.8604 1.29931 -0.165131 -0.282695 -0.944889
5.75081 48.489 1.19779 -0.128532 -0.297721 -0.945935
4.60749 48.4603 1.31656 -0.0651222 -0.287071 -0.955693
3.60436 48.4584 1.33719 0.0410592 -0.279134 -0.959269
2.53311 48.4966 1.24444 0.0901217 -0.304212 -0.948332
1.58868 48.3092 1.18536 0.160913 -0.315573 -0.935107
1.55703 47.3125 1.48412 0.126427 -0.267042 -0.955347
1.54203 46.3358 1.7412 0.141908 -0.23909 -0.960519
1.55161 45.2913 1.90731 0.135064 -0.13379 -0.981763
1.54144 44.1541 2.04871 0.1368 -0.109746 -0.9844
1.57921 42.8752 2.18759 0.143442 -0.0709947 -0.986775
1.55848 41.7402 2.23244 0.158341 -0.0237332 -0.987099
1.55281 40.6417 2.25595 0.146036 -0.00717323 -0.989253
1.53889 39.4738 2.26652 0.158931 -0.00677008 -0.987255
1.52627 38.3708 2.32604 0.190434 -0.105207 -0.976017
1.47635 37.2848 2.47477 0.242995 -0.118153 -0.962805
1.4753 37.2101 2.48368 0.247298 -0.11077 -0.962549
0.521789 37.1021 2.15052 0.395826 -0.0684354 -0.915772
0.539831 36.0089 2.24514 0.410761 -0.0340642 -0.911102
0.471191 35.0152 2.35511 0.523454 -0.359852 -0.772273
0.758574 34.62 2.85606 0.51084 -0.614744 -0.599014
1.57611 35.3586 2.85399 0.426721 -0.416365 -0.800185
2.45577 35.9797 2.97423 0.44219 -0.337815 -0.830873
3.29402 36.4787 3.04194 0.212345 -0.265903 -0.940322
4.32569 36.811 3.02861 -0.128942 -0.277321 -0.952086
5.09637 36.17 3.03261 -0.250724 -0.271643 -0.928473
6.05768 35.6988 2.88655 -0.406773 -0.390217 -0.815146
6.87966 34.9449 2.84791 -0.482955 -0.536771 -0.691832
7.49302 34.6994 2.58501 -0.551715 -0.438309 -0.709235
7.46592 35.7443 2.12952 -0.480434 -0.230677 -0.844923
7.48371 36.8116 1.96166 -0.473419 -0.0848073 -0.876745
7.45117 37.9524 1.89187 -0.395258 -0.0341351 -0.916546
7.41766 39.0674 1.89593 -0.247289 0.0169034 -0.968794
7.41928 40.1271 1.91996 -0.234383 0.0127645 -0.972061
7.42484 41.2823 1.93334 -0.234592 0.0107482 -0.972034
7.43588 42.2829 1.94035 -0.206318 -0.00571237 -0.978254
7.40153 43.3214 1.90183 -0.187039 -0.0880553 -0.978392
7.40902 44.4701 1.78552 -0.190013 -0.10647 -0.97599
7.41108 45.5652 1.66068 -0.179637 -0.136391 -0.974166
7.40554 46.5958 1.48542 -0.201045 -0.191051 -0.960771
7.41307 47.6367 1.18589 -0.189168 -0.29228 -0.93743
7.41861 48.6658 0.838122 -0.198644 -0.327663 -0.923676
6.9162 49.4182 0.674454 -0.197631 -0.339329 -0.919673
5.8224 49.4599 0.862104 -0.139051 -0.321502 -0.936638
4.81389 49.4428 0.994181 -0.0702324 -0.316747 -0.945906
3.65867 49.411 1.03542 0.030791 -0.310217 -0.950167
2.63705 49.4682 0.936353 0.119578 -0.330846 -0.936078
1.58386 49.4382 0.792511 0.165055 -0.339405 -0.926019
0.608466 49.2805 0.656176 0.192035 -0.339181 -0.920912
0.57371 48.298 1.00137 0.192632 -0.332485 -0.923226
0.584083 47.3328 1.32005 0.171716 -0.286658 -0.942455
0.582781 46.3032 1.58797 0.167414 -0.210822 -0.963004
0.580633 45.2736 1.75013 0.167948 -0.132832 -0.976806
0.562941 44.2144 1.88214 0.1709 -0.115817 -0.978458
0.566366 43.2045 1.99699 0.150911 -0.0935245 -0.984113
0.598752 42.111 2.05662 0.171195 -0.0163947 -0.985101
0.582719 41.0197 2.07671 0.195006 -0.0192838 -0.980613
0.582466 39.9894 2.08983 0.20587 -0.00276718 -0.978576
0.572586 38.9012 2.07156 0.216797 0.00188196 -0.976215
0.539526 37.8611 2.0878 0.410872 -0.0994165 -0.906257
0.517919 37.3462 2.1306 0.395825 -0.068435 -0.915772
2.03532 38.1335 2.45866 0.15073 -0.164142 -0.974853
3.18797 38.1678 2.62336 0.143469 -0.187605 -0.97171
3.23685 38.1694 2.63027 0.131156 -0.195685 -0.971857
2.15109 39.0398 2.37496 0.133853 -0.0622494 -0.989044
3.1511 39.0543 2.48358 0.120797 -0.0735321 -0.98995
4.2181 39.0592 2.51361 -0.0890482 -0.106097 -0.99036
5.23986 39.0436 2.37995 -0.160275 -0.0773464 -0.984037
5.80791 39.0336 2.27562 -0.189327 -0.0344488 -0.98131
5.7857 39.9419 2.27462 -0.174531 -0.0201906 -0.984445
4.70112 39.9524 2.42471 -0.120716 -0.0223056 -0.992436
3.53481 39.9547 2.4762 0.0237828 -0.00313073 -0.999712
2.47019 39.9477 2.3885 0.104523 -0.0239799 -0.994233
2.05105 39.9441 2.33863 0.129164 -0.01592 -0.991495
2.07361 40.8487 2.32373 0.113868 -0.0178107 -0.993336
3.25107 40.8551 2.42731 0.0649426 -0.0325346 -0.997358
4.27803 40.8561 2.43483 -0.0824907 -0.0296118 -0.996152
5.28228 40.8511 2.32552 -0.117988 -0.0231258 -0.992746
5.82556 40.8476 2.25422 -0.153303 -0.0110206 -0.988118
5.89669 41.7518 2.22555 -0.152678 -0.0114036 -0.98821
4.89895 41.757 2.34817 -0.111629 -0.0275649 -0.993368
3.77132 41.7603 2.42178 -0.0015612 -0.0165308 -0.999862
2.71752 41.7565 2.35927 0.0734874 -0.0278484 -0.996907
2.07715 41.7524 2.29903 0.108734 -0.0123302 -0.993994
2.23006 42.6562 2.27877 0.109983 -0.049179 -0.992716
3.34751 42.6635 2.3675 0.0689302 -0.0471517 -0.996507
4.35982 42.6644 2.37223 -0.0542614 -0.0519694 -0.997173
5.37571 42.6581 2.26583 -0.104288 -0.0501792 -0.99328
5.81265 42.6554 2.21788 -0.124207 -0.0375434 -0.991546
5.91869 43.5553 2.14022 -0.126232 -0.112359 -0.985617
4.80924 43.5644 2.2546 -0.0802131 -0.112662 -0.99039
3.80556 43.5689 2.30775 -0.0154017 -0.100026 -0.994866
2.70269 43.5613 2.24494 0.0755388 -0.101834 -0.991929
2.07426 43.5548 2.18521 0.0991334 -0.112697 -0.988672
2.05554 44.4518 2.08003 0.105448 -0.109524 -0.988375
3.10312 44.4632 2.16618 0.0588126 -0.12372 -0.990573
4.14393 44.4685 2.19916 -0.0176524 -0.151845 -0.988247
5.14265 44.4607 2.12388 -0.0890115 -0.116821 -0.989156
5.92446 44.4512 2.03653 -0.124477 -0.107988 -0.986329
5.78478 45.3499 1.95427 -0.116289 -0.109703 -0.987138
4.69206 45.3645 2.05314 -0.0838275 -0.135216 -0.987264
3.6119 45.3683 2.08116 0.0420712 -0.116783 -0.992266
2.59792 45.3562 2.0171 0.0639472 -0.132033 -0.989181
2.07668 45.3477 1.96777 0.108824 -0.157989 -0.981426
2.15687 46.2421 1.83613 0.0982854 -0.171391 -0.980288
3.19063 46.2603 1.9241 0.0826463 -0.2272 -0.970335
4.29825 46.2637 1.93441 -0.0682449 -0.193337 -0.978756
5.34886 46.2501 1.85775 -0.115752 -0.163847 -0.979671
5.9063 46.2378 1.79245 -0.119186 -0.165937 -0.978907
5.86541 47.1181 1.59618 -0.121153 -0.275537 -0.953625
4.86003 47.1379 1.68503 -0.0770521 -0.271214 -0.95943
3.80747 47.1464 1.72656 0.019652 -0.286483 -0.957884
2.71405 47.1308 1.66664 0.0803742 -0.270789 -0.959277
2.07996 47.1155 1.60566 0.1064 -0.28435 -0.952798
2.27957 47.988 1.37491 0.0887518 -0.281602 -0.955418
2.71734 47.9989 1.41347 0.0930963 -0.285905 -0.953725
5.22867 47.9997 1.40474 -0.085879 -0.287241 -0.954001
5.53191 47.9929 1.37742 -0.10694 -0.295121 -0.949456
5.93625 38.1264 2.38578 -0.198775 -0.201962 -0.95901
4.82812 38.1626 2.59144 -0.186214 -0.194911 -0.962982
4.82423 38.1628 2.59222 -0.162379 -0.17197 -0.971627
4.82115 38.1628 2.5926 -0.145872 -0.201534 -0.968558
