1.43388 37.9768 2.67918 0.182406 -0.174458 -0.967622
1.677 37.4616 2.81707 0.195443 -0.165241 -0.966002
2.33512 38.3073 2.77343 0.14232 -0.157347 -0.977179
3.20929 39.0421 2.7734 0.108605 -0.118397 -0.987009
4.29385 39.2336 2.77985 -0.0435921 -0.128048 -0.990809
5.25323 38.7132 2.71202 -0.144051 -0.14801 -0.977999
5.9771 37.9271 2.72137 -0.214418 -0.215048 -0.95252
6.58706 37.5408 2.63606 -0.299709 -0.16233 -0.939375
6.52221 38.5487 2.47184 -0.261559 -0.1443 -0.954144
6.4915 39.5844 2.39601 -0.223167 0.00580496 -0.974763
6.50862 40.6907 2.39171 -0.199904 -0.0170946 -0.979666
6.48238 41.7953 2.39386 -0.184335 -0.00519163 -0.98285
6.45033 42.8562 2.36418 -0.180838 -0.0426572 -0.982587
6.45659 43.9162 2.27328 -0.16338 -0.104167 -0.981048
6.44758 45.0198 2.15227 -0.164152 -0.116298 -0.979556
6.4651 46.0645 2.01133 -0.151468 -0.136387 -0.979006
6.47298 47.091 1.77684 -0.134504 -0.266045 -0.954531
6.44882 48.0576 1.49701 -0.147756 -0.296293 -0.943544
5.75265 48.5122 1.45369 -0.108939 -0.291441 -0.95034
4.64586 48.5144 1.56123 -0.0636884 -0.294717 -0.95346
3.57967 48.4716 1.59003 0.034525 -0.287153 -0.957074
2.4425 48.5266 1.48567 0.091223 -0.283979 -0.954481
1.55804 48.0809 1.51466 0.137425 -0.29709 -0.944908
1.51945 46.9321 1.84706 0.13378 -0.257635 -0.956931
1.59665 45.8907 2.07626 0.1388 -0.159654 -0.977276
1.54088 44.8063 2.22164 0.137069 -0.126614 -0.982436
1.52069 43.7353 2.34965 0.143518 -0.111463 -0.983351
1.542 42.6878 2.44826 0.148995 -0.0452959 -0.987668
1.52975 41.6566 2.48231 0.146471 -0.0366654 -0.988535
1.5263 40.6527 2.50976 0.153315 -0.0417583 -0.987295
1.53592 39.6486 2.5337 0.180517 -0.0159904 -0.983434
1.47765 38.5543 2.59217 0.199467 -0.124232 -0.971993
1.43496 37.9852 2.67787 0.182406 -0.174456 -0.967622
0.489932 38.044 2.37534 0.397906 -0.117116 -0.90992
0.49007 36.9653 2.48605 0.422186 -0.0757676 -0.903337
0.497603 35.764 2.58212 0.421529 -0.0416888 -0.905856
0.604387 34.9332 2.96903 0.455035 -0.450505 -0.768107
1.46329 35.7737 3.03915 0.386887 -0.219593 -0.891277
2.1869 36.4863 3.09251 0.180599 -0.188232 -0.965377
2.85547 37.3508 3.03459 0.172497 -0.198714 -0.964757
3.5999 38.1788 2.9689 0.158212 -0.282301 -0.944024
4.52094 38.0959 2.97666 -0.174802 -0.232297 -0.956483
5.20266 37.337 3.0159 -0.192124 -0.229895 -0.954063
5.82012 36.5264 3.0604 -0.254421 -0.222717 -0.941099
6.51765 35.799 2.98889 -0.356265 -0.301913 -0.884181
7.26661 34.9928 2.92155 -0.458747 -0.497747 -0.73607
7.50007 35.6012 2.483 -0.452238 -0.293654 -0.837983
7.51336 36.6058 2.29289 -0.472954 -0.0792229 -0.877518
7.51156 37.6346 2.20049 -0.478005 -0.0745591 -0.875187
7.46803 38.7438 2.15218 -0.353773 -0.0487397 -0.933569
7.47393 39.961 2.16736 -0.24254 0.0179271 -0.969976
7.47582 40.9857 2.17908 -0.234693 0.0081034 -0.972029
7.45381 41.9967 2.19341 -0.214547 0.00953788 -0.976663
7.42689 43.0468 2.17409 -0.19867 -0.0713702 -0.977464
7.43419 44.2088 2.06528 -0.192381 -0.105972 -0.975582
7.44508 45.2695 1.94943 -0.193896 -0.109054 -0.974929
7.43662 46.2747 1.81323 -0.16395 -0.190203 -0.967463
7.44937 47.3168 1.54792 -0.184994 -0.273836 -0.943621
7.43775 48.3802 1.20965 -0.197191 -0.319989 -0.926663
7.38367 49.3645 0.867964 -0.198324 -0.342795 -0.918237
6.38344 49.4526 1.036 -0.170195 -0.334631 -0.926853
5.34291 49.46 1.1984 -0.110179 -0.316075 -0.942306
4.21028 49.4569 1.29919 -0.0275652 -0.305882 -0.95167
3.07781 49.463 1.25095 0.0869299 -0.308684 -0.947182
2.03186 49.4773 1.12094 0.140811 -0.334968 -0.93157
1.02235 49.4392 0.955198 0.182395 -0.345556 -0.920502
0.574643 48.6498 1.15134 0.18847 -0.326135 -0.926345
0.565601 47.689 1.47488 0.159073 -0.296638 -0.941649
0.552613 46.6864 1.75898 0.15113 -0.227878 -0.961889
0.569753 45.6023 1.96175 0.164174 -0.139006 -0.976554
0.546713 44.5367 2.09512 0.160689 -0.119265 -0.979773
0.554437 43.4173 2.23033 0.153699 -0.0990152 -0.983109
0.540491 42.3524 2.30245 0.16691 -0.0251027 -0.985566
0.540796 41.2994 2.32254 0.176916 -0.0178906 -0.984063
0.534656 40.2079 2.34058 0.190617 -0.0100705 -0.981612
0.54398 39.0655 2.34071 0.211657 -0.0122608 -0.976883
0.491933 38.0894 2.37037 0.378833 -0.0828346 -0.92085
2.10287 39.4969 2.62146 0.127504 -0.0315057 -0.991338
2.89297 39.5034 2.70724 0.0920019 -0.0453575 -0.994725
2.11978 40.4399 2.59453 0.11819 -0.025911 -0.992653
3.23043 40.4451 2.70211 0.0825117 -0.032926 -0.996046
4.31889 40.4448 2.71758 -0.0499919 -0.000896769 -0.998749
5.42528 40.4348 2.57442 -0.138349 -0.0180984 -0.990218
6.01547 40.43 2.49071 -0.170956 0.00417468 -0.98527
5.94116 39.4832 2.51471 -0.184431 -0.0250641 -0.982526
4.97122 39.4967 2.6607 -0.155703 -0.0750872 -0.984946
5.89536 41.3759 2.49044 -0.143497 -0.000427437 -0.989651
4.86889 41.3826 2.61986 -0.115792 -0.0286672 -0.99286
3.7726 41.3875 2.69393 -0.0183696 -0.0505706 -0.998552
2.70324 41.3844 2.6258 0.0839864 -0.0292494 -0.996038
2.11636 41.3816 2.57096 0.106208 -0.0355311 -0.993709
2.06004 42.3223 2.53214 0.129586 -0.0553568 -0.990022
3.21248 42.3282 2.62843 0.055473 -0.0487541 -0.997269
4.37471 42.3293 2.64346 -0.0742684 0.00164314 -0.997237
5.45307 42.3226 2.53373 -0.103536 -0.0302953 -0.994164
5.93802 42.3187 2.46923 -0.14667 -0.0238018 -0.988899
5.9332 43.2595 2.41787 -0.131142 -0.0863324 -0.987597
4.90283 43.2686 2.5328 -0.0749053 -0.108929 -0.991223
3.85704 43.273 2.58611 -0.0160926 -0.108542 -0.993962
2.71314 43.2681 2.53328 0.0814879 -0.106719 -0.990944
2.04672 43.2625 2.47681 0.108387 -0.129771 -0.985602
2.17689 44.1987 2.37439 0.113273 -0.120201 -0.986266
3.32505 44.2109 2.46536 0.0660739 -0.12146 -0.990395
4.33106 44.2123 2.47289 -0.0737385 -0.116434 -0.990457
5.38886 44.2024 2.38314 -0.092614 -0.118939 -0.988573
5.92353 44.1959 2.32136 -0.130791 -0.123886 -0.983639
5.8701 45.1312 2.21962 -0.123729 -0.126518 -0.984218
4.81406 45.1454 2.32634 -0.0904254 -0.11591 -0.989135
3.6583 45.1494 2.36454 0.0169403 -0.143628 -0.989487
2.59932 45.1396 2.29803 0.0909941 -0.129562 -0.987387
2.05291 45.1309 2.24451 0.107501 -0.121167 -0.986794
2.24999 46.0675 2.135 0.0917912 -0.148078 -0.984707
3.35576 46.0852 2.22719 0.036049 -0.192866 -0.980563
4.36201 46.0866 2.22569 -0.0591203 -0.151058 -0.986755
5.39976 46.0713 2.1397 -0.0775673 -0.178374 -0.980901
5.85745 46.0646 2.10204 -0.138231 -0.134435 -0.981234
5.95385 46.9794 1.8813 -0.102478 -0.302309 -0.947685
4.84022 47.0029 1.98878 -0.069526 -0.257699 -0.963721
3.81722 47.0116 2.03068 0.034606 -0.291691 -0.955886
2.59718 46.9924 1.95455 0.0857892 -0.253813 -0.963441
2.03286 46.9815 1.90726 0.119091 -0.275463 -0.953906
2.16589 47.8872 1.65463 0.101847 -0.282526 -0.953838
3.23877 47.9111 1.74507 0.0667963 -0.286141 -0.955856
4.30711 47.9178 1.76466 -0.0489956 -0.263957 -0.963289
5.44736 47.8954 1.67339 -0.0986025 -0.285008 -0.95344
5.57432 47.8925 1.66113 -0.0983842 -0.285357 -0.953358
5.73849 47.8888 1.64533 -0.10839 -0.284343 -0.952576
