1.44173 37.7743 2.80965 0.208668 -0.159559 -0.964878
2.13671 38.5214 2.80871 0.134452 -0.153254 -0.978866
2.85798 39.3373 2.80329 0.114816 -0.0608632 -0.99152
3.91706 39.7568 2.84446 -0.00374806 -0.062346 -0.997801
4.9249 39.475 2.76466 -0.13556 -0.0440548 -0.989789
5.65328 38.7496 2.72673 -0.188743 -0.154408 -0.969811
6.32157 37.9358 2.73399 -0.232715 -0.189493 -0.953906
6.52535 38.4111 2.58878 -0.242053 -0.193138 -0.950846
6.45873 39.5898 2.48923 -0.208438 -0.00637333 -0.977988
6.42948 40.6621 2.49208 -0.182249 -0.00982254 -0.983203
6.4627 41.7002 2.48111 -0.183813 -0.0177741 -0.9828
6.45582 42.778 2.45466 -0.165893 -0.0416324 -0.985265
6.47631 43.8557 2.36109 -0.161502 -0.0937254 -0.982412
6.46052 44.9237 2.2463 -0.165451 -0.117192 -0.97923
6.43426 46.0135 2.10765 -0.125566 -0.149815 -0.980708
6.46416 46.9879 1.89151 -0.140034 -0.259224 -0.955611
6.4363 48.0917 1.57478 -0.1444 -0.290488 -0.94592
5.68661 48.4958 1.55402 -0.110317 -0.285539 -0.951997
4.61829 48.5062 1.65495 -0.0842574 -0.288274 -0.953834
3.51829 48.5047 1.67171 0.0618597 -0.297072 -0.952746
2.33989 48.4635 1.57901 0.103423 -0.302421 -0.947547
1.56717 48.0909 1.60127 0.133561 -0.292198 -0.946986
1.5282 47.0314 1.90895 0.141046 -0.263316 -0.95432
1.55038 45.9608 2.14763 0.123702 -0.15077 -0.980798
1.55894 44.85 2.30195 0.127686 -0.114863 -0.985141
1.56034 43.7946 2.4368 0.16041 -0.106947 -0.98108
1.53763 42.6412 2.53312 0.136513 -0.0570483 -0.988994
1.53535 41.6354 2.57031 0.145368 -0.0324467 -0.988827
1.55324 40.5555 2.60284 0.147998 -0.0383466 -0.988244
1.58936 39.3512 2.63851 0.151233 -0.0418869 -0.987553
1.54402 38.34 2.7401 0.17818 -0.167051 -0.969714
1.46206 37.9139 2.79112 0.206124 -0.158117 -0.965667
0.512876 37.9807 2.49744 0.373786 -0.137874 -0.91721
0.57959 39.1442 2.44819 0.216967 -0.000262037 -0.976179
0.571201 40.2541 2.43448 0.184822 -0.0179798 -0.982604
0.547387 41.3829 2.40954 0.179001 -0.0168757 -0.983704
0.541226 42.3869 2.38407 0.167011 -0.0213576 -0.985724
0.568696 43.4358 2.31331 0.156225 -0.112701 -0.981269
0.557446 44.4737 2.19003 0.163567 -0.120535 -0.979141
0.5645 45.5016 2.06164 0.15796 -0.141932 -0.977192
0.557954 46.5655 1.87226 0.160858 -0.223182 -0.961389
0.564165 47.5757 1.59756 0.155075 -0.283942 -0.94621
0.577326 48.6658 1.24112 0.19617 -0.328814 -0.923789
1.03177 49.4609 1.04006 0.18212 -0.344103 -0.921091
2.19464 49.4458 1.24722 0.126615 -0.335371 -0.933539
3.22769 49.4714 1.35396 0.0868727 -0.303696 -0.948796
4.2322 49.4649 1.39153 -0.0475216 -0.2981 -0.953351
5.24501 49.4431 1.30479 -0.110574 -0.305998 -0.945565
6.33196 49.467 1.14062 -0.169461 -0.329896 -0.928396
7.32564 49.3768 0.966454 -0.199651 -0.341862 -0.918297
7.41535 48.4024 1.2994 -0.203241 -0.319875 -0.925395
7.44346 47.3054 1.64181 -0.160323 -0.271799 -0.948887
7.43491 46.3317 1.88828 -0.153072 -0.171147 -0.973272
7.42569 45.3403 2.02976 -0.183781 -0.109947 -0.976799
7.46177 44.3447 2.13078 -0.190435 -0.102116 -0.976372
7.42637 43.2644 2.24368 -0.192108 -0.0773151 -0.978285
7.44818 42.2187 2.27798 -0.203147 -0.00224336 -0.978964
7.44079 41.1298 2.27754 -0.234159 0.00729763 -0.972159
7.43292 40.0218 2.26588 -0.230019 0.0124474 -0.973107
7.47313 38.8534 2.25162 -0.32728 -0.015669 -0.943983
7.48322 37.7141 2.30915 -0.429237 -0.10057 -0.897273
7.47776 36.6158 2.41876 -0.480107 -0.0983642 -0.871357
7.50338 35.5261 2.6237 -0.470285 -0.287234 -0.832657
7.12804 35.3585 2.9199 -0.477202 -0.334183 -0.812673
6.50828 36.1771 2.99086 -0.412034 -0.139659 -0.900402
5.8349 37.0031 3.05621 -0.204922 -0.222121 -0.953241
5.12842 37.897 2.99635 -0.184125 -0.218959 -0.958204
4.34468 38.7209 2.94325 -0.0881147 -0.209636 -0.973801
3.34146 38.4747 2.97741 0.108913 -0.179753 -0.977664
2.69214 37.6584 3.04312 0.135466 -0.191238 -0.972151
2.02154 36.7908 3.09872 0.162426 -0.171998 -0.971567
1.34927 35.9608 3.05513 0.349633 -0.195175 -0.915659
0.595066 35.2059 2.93995 0.44544 -0.451504 -0.77185
0.509453 36.1885 2.68154 0.379361 -0.08623 -0.921222
0.505256 37.3206 2.56494 0.40148 -0.0842023 -0.911989
0.505871 37.8297 2.51728 0.373786 -0.137873 -0.917211
2.05486 40.4932 2.67814 0.132358 -0.0443945 -0.990207
3.15276 40.4985 2.77618 0.0799925 -0.0390721 -0.996029
4.1685 40.4983 2.80241 -0.0439352 -0.0258175 -0.998701
5.1651 40.4903 2.69291 -0.127991 -0.0290463 -0.99135
5.88533 40.4838 2.58765 -0.149262 -0.0131931 -0.98871
5.79567 41.4241 2.58985 -0.131247 -0.0169028 -0.991206
4.73412 41.4321 2.7199 -0.11549 -0.0258878 -0.992971
3.66416 41.4361 2.78433 0.0356642 -0.00763813 -0.999335
2.44487 41.4312 2.68704 0.0939596 -0.0257787 -0.995242
2.06111 41.4292 2.64796 0.109903 -0.028609 -0.99353
2.06289 42.365 2.61705 0.122321 -0.0212963 -0.992262
3.07952 42.3714 2.70508 0.0697722 -0.0524826 -0.996181
4.17047 42.3728 2.73203 -0.040853 -0.0263634 -0.998817
5.29518 42.3659 2.63089 -0.105805 -0.0296144 -0.993946
5.86806 42.3618 2.56589 -0.146751 -0.0508999 -0.987863
5.91409 43.297 2.50993 -0.132764 -0.110487 -0.98497
4.83325 43.3061 2.6195 -0.0904176 -0.102757 -0.990589
3.65356 43.31 2.66841 0.00520514 -0.0997315 -0.995001
2.57813 43.3039 2.5981 0.090273 -0.0987599 -0.991008
2.10441 43.3002 2.55777 0.0861904 -0.117908 -0.989277
2.11796 44.2302 2.45117 0.114326 -0.133639 -0.984414
3.30946 44.2423 2.54393 0.0586016 -0.116568 -0.991452
4.45803 44.2429 2.54414 -0.0755636 -0.110965 -0.990948
5.45567 44.233 2.45531 -0.102368 -0.12218 -0.987215
5.90168 44.2275 2.40419 -0.12685 -0.117388 -0.984951
5.76011 45.1595 2.31453 -0.130604 -0.12448 -0.983589
4.76244 45.1724 2.40904 -0.0822899 -0.103482 -0.991221
3.60509 45.1762 2.44469 0.0472528 -0.11675 -0.992037
2.52165 45.1654 2.37319 0.084649 -0.140673 -0.986431
2.2204 45.1614 2.34787 0.116895 -0.114002 -0.986579
2.12007 46.087 2.20494 0.127425 -0.137181 -0.982316
3.21593 46.1038 2.29433 0.0761135 -0.165407 -0.983284
4.33051 46.1088 2.31523 -0.0621989 -0.155169 -0.985928
5.38382 46.0945 2.2321 -0.122642 -0.181284 -0.975754
5.87014 46.086 2.18426 -0.106308 -0.151505 -0.982723
5.95407 46.9955 1.96296 -0.124196 -0.281299 -0.951549
4.85475 47.019 2.07194 -0.0736265 -0.278093 -0.957728
3.80005 47.0273 2.11015 0.0166381 -0.256489 -0.966404
2.79949 47.0141 2.05608 0.0801553 -0.271579 -0.959073
2.05798 46.9973 1.98692 0.101589 -0.278744 -0.954977
2.17125 47.8993 1.73865 0.101419 -0.287039 -0.952535
3.28454 47.9249 1.83138 0.0668688 -0.278643 -0.958064
4.38919 47.9302 1.846 -0.0480432 -0.289886 -0.955855
5.4127 47.909 1.76198 -0.110292 -0.286531 -0.951701
5.83582 47.8978 1.71645 -0.116997 -0.286848 -0.950805
5.96349 39.5401 2.59473 -0.188188 -0.0302309 -0.981668
5.73176 39.5434 2.63252 -0.161304 -0.0344225 -0.986304
5.62256 39.5452 2.65032 -0.162672 -0.0310513 -0.986192
