1.45646 39.6895 2.77961 0.162487 -0.0279243 -0.986315
1.7995 40.0506 2.82534 0.145712 -0.0264136 -0.988974
1.52605 39.235 2.81985 0.181512 -0.0827285 -0.979597
1.47291 39.5288 2.78687 0.167679 -0.0264274 -0.985472
0.556068 39.5999 2.61627 0.195207 -0.0180492 -0.980596
0.537661 38.431 2.66799 0.299271 -0.0790006 -0.950892
0.543105 37.3831 2.79202 0.373822 -0.107973 -0.921124
0.51402 36.3717 2.88694 0.383559 -0.115841 -0.916222
0.811582 36.0313 3.05568 0.358894 -0.167028 -0.917458
1.0552 37.0827 3.00886 0.301705 -0.114442 -0.946508
1.58292 37.977 3.01194 0.223472 -0.179386 -0.95781
2.39986 38.7337 3.00924 0.126136 -0.153667 -0.980039
3.02576 39.5458 2.98191 0.103115 -0.0728837 -0.991996
2.6275 40.5116 2.90412 0.0911205 -0.0370285 -0.995138
2.0599 41.3527 2.8195 0.118602 -0.0237731 -0.99265
1.42322 42.3283 2.70612 0.152356 -0.0228523 -0.988061
1.33922 43.357 2.6216 0.156779 -0.114034 -0.981028
1.57486 44.3518 2.53749 0.146585 -0.118226 -0.982085
1.96721 45.4696 2.44518 0.118572 -0.126812 -0.984814
2.32811 46.5004 2.32488 0.0785491 -0.227239 -0.970563
3.23185 47.1821 2.22224 0.0689254 -0.282183 -0.956879
4.21404 47.3744 2.19647 -0.00801986 -0.281249 -0.959601
5.23812 46.8371 2.26483 -0.103553 -0.267312 -0.95803
5.65333 45.745 2.42701 -0.100873 -0.122559 -0.987319
5.81712 44.7488 2.52679 -0.118177 -0.115335 -0.986211
6.02724 43.7129 2.61542 -0.156994 -0.100607 -0.982452
6.07452 42.6017 2.69852 -0.164799 -0.0365429 -0.98565
5.59387 41.7284 2.78619 -0.110774 -0.0123561 -0.993761
5.10902 40.6886 2.86575 -0.130347 -0.0285308 -0.991058
4.83893 39.7268 2.94416 -0.136638 -0.0599187 -0.988787
5.35152 38.7704 2.97182 -0.177299 -0.18063 -0.967439
6.17559 37.8715 2.98331 -0.248031 -0.166677 -0.954306
6.81943 36.8899 2.95443 -0.388377 -0.159147 -0.907654
7.08344 35.9145 2.9649 -0.483927 -0.214227 -0.846794
7.51302 35.9895 2.71576 -0.456249 -0.201361 -0.86677
7.51318 37.029 2.58235 -0.477234 -0.0826661 -0.874879
7.49514 38.1003 2.48079 -0.431747 -0.109593 -0.895027
7.43651 39.1004 2.43851 -0.239005 -0.0305646 -0.970537
7.45831 40.2378 2.43967 -0.239837 0.0138103 -0.970715
7.45246 41.2459 2.45097 -0.233117 0.00681584 -0.972425
7.41281 42.329 2.45705 -0.206238 -0.0236852 -0.978215
7.44353 43.3765 2.4053 -0.190467 -0.0706203 -0.97915
7.41339 44.4527 2.29938 -0.189159 -0.104449 -0.976376
7.41336 45.4667 2.18804 -0.170906 -0.122694 -0.977618
7.37526 46.5244 2.03444 -0.171077 -0.223555 -0.959494
7.44187 47.4994 1.76213 -0.173962 -0.2738 -0.945923
7.42181 48.556 1.42567 -0.174247 -0.317164 -0.932226
7.17714 49.438 1.15824 -0.19595 -0.34204 -0.919027
6.13139 49.4382 1.36176 -0.165504 -0.330734 -0.929071
5.01468 49.4551 1.50371 -0.118138 -0.300166 -0.946543
4.00373 49.4443 1.58093 0.0360229 -0.268007 -0.962424
2.98921 49.4637 1.51012 0.0767668 -0.303981 -0.94958
1.96502 49.4485 1.39614 0.141292 -0.333123 -0.932112
0.965814 49.4422 1.21478 0.185616 -0.341219 -0.921475
0.581134 48.7254 1.39942 0.183583 -0.327526 -0.926835
0.557083 47.6577 1.7511 0.158501 -0.286535 -0.944861
0.59085 46.6234 2.04247 0.158144 -0.23021 -0.960099
0.594733 45.5516 2.22994 0.154684 -0.133726 -0.978872
0.570591 44.5021 2.35975 0.165499 -0.118532 -0.979059
0.605303 43.421 2.48967 0.163042 -0.103018 -0.981226
0.560238 42.3062 2.56214 0.167156 -0.0389062 -0.985163
0.543193 41.137 2.58867 0.185111 -0.0233419 -0.98244
0.564717 40.1197 2.61047 0.187817 -0.0114276 -0.982138
0.56002 39.7128 2.61498 0.195207 -0.0180487 -0.980596
5.85694 39.7998 2.7817 -0.162671 -0.0185968 -0.986505
6.48699 38.9608 2.71573 -0.213263 -0.147331 -0.965822
6.51809 39.9848 2.65844 -0.211706 -0.0071104 -0.977307
6.5317 40.9997 2.64883 -0.191087 0.00337357 -0.981567
5.99344 40.3634 2.75295 -0.166226 -0.0119175 -0.986002
5.8644 39.9431 2.77776 -0.162671 -0.0185967 -0.986505
6.33963 46.8071 2.14155 -0.162764 -0.212285 -0.963394
5.6995 47.6289 1.99047 -0.111348 -0.285347 -0.951787
4.78869 48.193 1.91089 -0.0871338 -0.287534 -0.953799
4.30949 48.515 1.84821 -0.0444684 -0.295921 -0.954177
5.31433 48.5101 1.76603 -0.0980792 -0.28485 -0.953529
6.33064 48.4785 1.64555 -0.134103 -0.296759 -0.945461
6.43522 47.4677 1.93869 -0.136883 -0.285526 -0.948545
6.34449 46.8289 2.13602 -0.155682 -0.234919 -0.959121
3.94975 48.3171 1.91886 -0.0173022 -0.272029 -0.962133
3.17618 48.4891 1.82811 0.0822129 -0.288203 -0.954032
2.16457 48.5175 1.71713 0.122257 -0.286863 -0.950138
1.51868 47.9 1.82729 0.138324 -0.302214 -0.943151
1.85623 47.4075 2.0189 0.114559 -0.278067 -0.953703
2.7374 47.9675 1.94831 0.0784402 -0.283882 -0.955645
3.68598 48.3285 1.91247 0.0207605 -0.280615 -0.959533
3.93598 48.3143 1.91991 -0.0025523 -0.279634 -0.959957
3.94129 48.3149 1.91964 -0.0173029 -0.272031 -0.962133
