1.07189 48.5671 1.81025 0.160072 -0.319618 -0.933928
1.94407 48.9357 1.81905 0.119452 -0.306953 -0.944193
1.84248 48.532 1.93695 0.125545 -0.300588 -0.94543
1.07505 48.4421 1.85357 0.157252 -0.320388 -0.934139
0.417878 48.4482 1.74092 0.161995 -0.323474 -0.932267
0.467792 49.4632 1.37969 0.189371 -0.343575 -0.91983
1.41062 49.5943 1.51481 0.174229 -0.336055 -0.925587
2.45181 49.5941 1.6746 0.107936 -0.297157 -0.948707
3.57963 49.5354 1.79731 0.0591976 -0.294803 -0.953419
4.68955 49.5813 1.76116 -0.0899434 -0.295809 -0.951003
5.69296 49.5824 1.64705 -0.118364 -0.303648 -0.945403
6.71938 49.6074 1.46283 -0.178548 -0.342621 -0.922351
7.59454 49.1995 1.43112 -0.194759 -0.340944 -0.919683
7.57704 48.2173 1.7848 -0.161944 -0.312909 -0.935852
7.56897 47.1627 2.09855 -0.160428 -0.271219 -0.949049
7.53304 46.2627 2.31964 -0.137026 -0.188962 -0.972377
7.35614 46.3449 2.32934 -0.242386 -0.173577 -0.954526
6.80692 47.1601 2.22964 -0.171662 -0.289018 -0.941807
5.97952 47.8148 2.1558 -0.127064 -0.289462 -0.948718
5.08366 48.3218 2.10472 -0.100469 -0.287651 -0.952448
4.12975 48.7539 2.05076 -0.0511058 -0.343161 -0.937885
2.97258 48.4108 2.09643 0.0833506 -0.290219 -0.953316
2.00272 47.921 2.14472 0.107408 -0.29981 -0.947908
1.15077 47.2836 2.22037 0.152622 -0.282405 -0.947076
0.4305 46.96 2.19602 0.150798 -0.265444 -0.95226
0.434217 47.93 1.91335 0.157069 -0.289601 -0.944172
0.417485 48.3364 1.77964 0.161996 -0.323471 -0.932268
5.58392 48.8001 1.90855 -0.106924 -0.293819 -0.949824
6.4701 48.2129 1.96638 -0.139724 -0.288737 -0.947149
6.93919 48.6511 1.75434 -0.168803 -0.297617 -0.939643
6.15238 48.9659 1.77814 -0.141319 -0.309948 -0.940192
5.60698 48.7957 1.90718 -0.118272 -0.296779 -0.947581
7.44056 45.6752 2.41569 -0.174342 -0.123768 -0.976876
7.48578 45.3442 2.44497 -0.180513 -0.103879 -0.978072
7.43445 45.5698 2.43015 -0.174043 -0.118513 -0.977565
7.5404 44.6819 2.50639 -0.185996 -0.102928 -0.977144
7.57132 44.6775 2.50096 -0.185953 -0.102898 -0.977156
7.59583 44.075 2.56007 -0.186609 -0.103535 -0.976963
7.5852 44.0111 2.56887 -0.187478 -0.102932 -0.976861
7.5775 42.4925 2.68569 -0.2051 -0.00862556 -0.978699
7.15408 41.647 2.77855 -0.211729 0.00167897 -0.977327
6.77665 40.5181 2.86158 -0.220043 0.00560631 -0.975473
6.44518 39.5164 2.9484 -0.232554 -0.0432629 -0.971621
6.82456 38.5571 2.97415 -0.296922 -0.164704 -0.940491
7.26832 37.6488 2.97364 -0.42176 -0.134761 -0.896637
7.35396 36.5939 3.0409 -0.482202 -0.0903493 -0.871342
7.63114 35.9412 2.97784 -0.496983 -0.203269 -0.843617
7.66289 37.0299 2.82882 -0.481562 -0.0797442 -0.872777
7.62098 38.2137 2.725 -0.431267 -0.121948 -0.893945
7.62581 39.2163 2.65803 -0.252872 -0.0254585 -0.967165
7.5863 40.3611 2.67274 -0.234665 0.0105741 -0.972011
7.54309 41.4025 2.69208 -0.227787 0.00591371 -0.973693
7.55437 42.3922 2.69125 -0.207074 -0.0064971 -0.978304
0.864916 39.9807 2.93271 0.182815 -0.0264212 -0.982783
0.513224 40.929 2.84749 0.181397 -0.0196384 -0.983213
0.393895 39.8934 2.84508 0.189544 -0.0168283 -0.981728
0.371116 38.8049 2.89471 0.315765 -0.080939 -0.945379
0.716414 38.7539 2.99272 0.242571 -0.126275 -0.96188
0.948986 39.714 2.95786 0.188963 -0.0340015 -0.981395
0.879211 39.9308 2.93691 0.185519 -0.0322926 -0.982102
