2.86379 2.27281 1.80312 0.0772766 -0.301298 0.950394
3.42344 3.12596 2.02125 0.0555663 -0.271464 0.960538
3.84545 4.18518 2.25299 0.00976609 -0.191109 0.980783
4.37879 3.5231 2.12603 -0.048165 -0.240789 0.969292
4.87256 2.57696 1.8832 -0.0702531 -0.298715 0.951712
4.55736 2.06252 1.69787 -0.0497758 -0.306246 0.95065
3.53503 2.08605 1.69203 0.056717 -0.288182 0.955698
2.92652 2.10715 1.7455 0.0772769 -0.301298 0.950394
2.8472 0.744278 1.3139 0.0822486 -0.317096 0.944819
1.72724 0.763583 1.45062 0.1329 -0.311474 0.940887
0.811491 0.943322 1.66065 0.163164 -0.307955 0.937298
0.81177 2.00065 1.99874 0.168455 -0.304103 0.937618
1.50008 2.76735 2.12499 0.148808 -0.297402 0.943084
2.13166 3.63382 2.27573 0.118582 -0.240994 0.963255
2.50796 4.69014 2.42914 0.101852 -0.160423 0.981779
3.06623 5.6226 2.53598 0.0623546 -0.158265 0.985418
3.70967 6.44517 2.63164 0.0138064 -0.153073 0.988118
4.33093 6.32716 2.61527 -0.0327298 -0.179027 0.9833
5.05341 5.38413 2.51094 -0.0830332 -0.158385 0.983879
5.51415 4.46893 2.40352 -0.0983643 -0.162829 0.981694
5.85589 3.5033 2.24697 -0.148406 -0.261045 0.953851
6.48646 2.705 2.11526 -0.165123 -0.297681 0.940277
7.14477 1.96939 2.00006 -0.178063 -0.301906 0.936561
7.14746 0.8888 1.65185 -0.169547 -0.309613 0.935618
6.06609 0.772694 1.43283 -0.132714 -0.314141 0.940031
5.00678 0.733257 1.30215 -0.0857115 -0.315663 0.944992
3.99538 0.755923 1.2565 0.00824576 -0.318749 0.947803
2.99765 0.745229 1.30093 0.083472 -0.316101 0.945046
3.96059 7.36888 2.73354 0.00732685 -0.0840355 0.996436
4.30133 8.40999 2.80784 -0.0414448 -0.0531937 0.997623
4.6302 9.36506 2.87365 -0.0786727 -0.0438823 0.995934
4.89757 10.3393 2.94779 -0.0809798 -0.0547159 0.995213
5.12758 11.3763 3.01133 -0.0976524 -0.0420236 0.994327
5.26954 12.41 3.05536 -0.127099 -0.0358828 0.991234
5.50021 13.3825 3.10683 -0.0929211 -0.0273683 0.995278
5.66579 14.422 3.16621 -0.122965 -0.0427639 0.991467
5.61928 15.521 3.19891 -0.148658 -0.0589784 0.987128
5.66913 16.5302 3.23934 -0.153261 -0.0381613 0.987449
5.78326 17.5629 3.27487 -0.170741 -0.0103828 0.985169
5.71471 18.5693 3.27084 -0.197845 0.0290435 0.979587
5.77306 19.8119 3.29783 -0.216263 -0.0156281 0.975872
5.82756 20.8202 3.31909 -0.235468 -0.039114 0.971095
5.86963 21.8876 3.33343 -0.183642 0.033711 0.982415
5.86358 22.9713 3.33589 -0.259916 0.0105836 0.965573
5.82959 24.0974 3.3434 -0.252113 -0.00774694 0.96763
5.73046 25.146 3.35348 -0.215425 -0.0102241 0.976467
5.63281 26.1788 3.3316 -0.155585 -0.0161227 0.987691
5.32825 27.1717 3.34347 -0.155583 -0.173314 0.9725
4.62599 27.9056 3.3421 -0.101218 -0.180777 0.978302
3.75209 27.8234 3.29534 0.0654496 -0.0812906 0.994539
3.15581 26.9739 3.28571 0.133465 -0.0638147 0.986141
2.89587 25.9312 3.33408 0.207918 0.00171118 0.978092
2.79955 24.8455 3.36789 0.24218 -0.0198965 0.970027
2.85445 23.7602 3.32755 0.223736 0.0163162 0.974017
2.8272 22.6034 3.32096 0.172715 -0.00338364 0.984014
2.71011 21.5622 3.33979 0.212528 -0.0104427 0.977099
2.77395 20.512 3.30026 0.221871 -0.0308719 0.974587
2.80586 19.4397 3.26454 0.207353 -0.00962315 0.978219
2.69858 18.3106 3.27255 0.203632 -0.00157677 0.978886
2.67466 17.3039 3.25458 0.163887 -0.0189496 0.986297
2.79103 16.2667 3.20297 0.141383 -0.057318 0.988294
2.74332 15.258 3.17827 0.137702 -0.049441 0.989239
2.69013 14.1568 3.1554 0.123941 -0.0400128 0.991483
2.93299 13.0924 3.08906 0.110117 -0.0189152 0.993695
3.08585 11.988 3.03368 0.085468 -0.0209714 0.99612
3.2181 10.9694 2.97775 0.105728 -0.035695 0.993753
3.39642 9.89675 2.90745 0.10047 -0.0736104 0.992213
3.54884 8.82982 2.83395 0.068666 -0.0476777 0.9965
3.85449 7.76399 2.76956 0.0300757 -0.06981 0.996832
3.9862 7.58043 2.75119 0.00732692 -0.0840354 0.996436
4.14624 13.9797 3.04652 0.0116237 -0.00177102 0.999931
4.20477 14.0135 3.0459 -0.0155025 -0.0185774 0.999198
4.21812 14.4188 3.05933 -0.0425798 -0.0248116 0.998785
4.13088 14.4367 3.05605 -0.0122654 -0.0419983 0.998434
4.16206 14.9427 3.07773 0.00600924 -0.0307811 0.999408
4.15896 14.9521 3.07807 -0.00601123 -0.0381923 0.999252
4.29247 16.7065 3.11392 -0.0182534 0.0198538 0.999636
4.27301 16.7213 3.11327 -0.0182527 0.0198538 0.999636
4.35159 17.0061 3.11283 -0.0188745 -0.00287844 0.999818
4.31482 18.0684 3.11153 -0.0624027 -0.0300467 0.997435
4.22334 19.0771 3.13969 0.00201095 -0.0318837 0.99949
4.15523 18.2946 3.11951 0.012836 -0.0567618 0.998305
4.16936 17.3556 3.11039 -0.0225985 -0.00869825 0.999683
4.18216 17.1698 3.1101 -0.0188745 -0.00287845 0.999818
4.24167 19.5341 3.15217 -0.00186681 -0.0249023 0.999482
4.24078 19.536 3.15222 -0.0196222 -0.0347127 0.999205
4.3172 19.8946 3.15777 -0.018986 0.0285473 0.999412
4.44972 20.9122 3.15462 -0.0478927 0.00708635 0.998441
4.49411 21.9534 3.16207 -0.033126 0.00853634 0.999415
4.28305 22.7876 3.18397 0.012177 -0.0299313 0.999477
4.17163 21.8823 3.15364 0.00294449 -0.0110441 0.999815
4.19439 20.888 3.15285 0.0278959 0.0229554 0.99906
4.24275 19.9997 3.15335 -0.00136342 0.0189731 0.999618
4.46299 22.9454 3.18671 0.0114017 -0.030343 0.999475
4.30379 22.9658 3.18914 0.0114013 -0.0303432 0.999475
4.30269 23.4157 3.1904 0.0103838 0.0104378 0.999878
4.4423 23.449 3.18807 -0.0116994 -0.00755361 0.999434
4.27991 23.8512 3.1798 -0.0142233 0.0227404 0.99964
4.43028 23.8849 3.18117 -0.0142228 0.0227402 0.99964
4.23395 24.2354 3.16915 0.00143731 0.018937 0.999654
4.20388 24.999 3.16513 -0.0660456 -0.0121381 0.997743
4.24787 24.4203 3.16708 0.0163116 0.025463 0.999421
4.21896 25.1179 3.16758 -0.0215417 -0.0335127 0.997986
4.30779 25.265 3.17466 -0.0405919 0.0123395 0.999082
4.30866 25.2323 3.17491 -0.0528392 -0.00281627 0.998468
