7.44259 11.8155 14.5045 0.667661 -0.316001 0.673359
7.54467 10.7785 13.9963 0.624503 -0.289837 0.725252
7.69896 9.80979 13.6244 0.51133 -0.164326 0.843151
7.85227 8.76299 13.2659 0.424265 -0.275346 0.862661
8.14052 7.65398 12.7787 0.361758 -0.258114 0.895743
8.26896 6.71005 12.4586 0.216681 -0.300653 0.928793
8.41529 5.68146 12.0879 0.177917 -0.360464 0.91548
8.49197 4.75811 11.6841 0.162556 -0.386345 0.907891
8.50791 3.71323 11.1835 0.181904 -0.457377 0.870469
8.46312 2.82677 10.6817 0.201038 -0.51738 0.831806
8.13868 1.87011 10.0534 0.216027 -0.608692 0.763412
8.37178 1.36456 9.56995 0.217034 -0.636509 0.740074
9.47054 1.35293 9.31816 0.104719 -0.658271 0.744631
10.488 1.33713 9.32877 -0.087846 -0.657429 0.748379
11.565 1.38609 9.51393 -0.120001 -0.643063 0.756353
12.544 1.40663 9.78858 -0.260222 -0.634649 0.727661
12.1238 2.28747 10.3854 -0.20799 -0.587913 0.780741
11.7922 3.09889 10.8775 -0.172621 -0.572676 0.801402
11.5278 3.9321 11.3632 -0.206012 -0.497572 0.842045
11.4621 4.88114 11.799 -0.232891 -0.386137 0.892542
11.5888 5.86433 12.2076 -0.263071 -0.323736 0.908711
11.7899 6.92997 12.6101 -0.334181 -0.254641 0.907459
12.0377 7.92416 12.9746 -0.404902 -0.210371 0.88983
12.2154 8.92058 13.3451 -0.51631 -0.232606 0.824207
12.3873 9.92481 13.7289 -0.533125 -0.218605 0.817295
12.4769 10.9354 14.09 -0.564206 -0.256572 0.784135
12.5281 11.951 14.4735 -0.584535 -0.271009 0.763844
12.4477 12.9147 14.9088 -0.642409 -0.438286 0.628447
12.1294 13.7981 15.365 -0.649154 -0.590494 0.479495
11.5692 14.6207 15.7135 -0.64038 -0.656745 0.398245
10.6505 15.325 15.9578 -0.270007 -0.948024 0.168367
9.55506 15.3498 16.0651 0.217934 -0.888565 0.398924
8.65509 14.9613 15.8612 0.368271 -0.789741 0.489524
8.0422 14.2174 15.5427 0.698618 -0.522807 0.488472
7.65537 13.2999 15.1482 0.633326 -0.488887 0.59981
7.47291 12.4013 14.7572 0.671476 -0.361203 0.647034
7.4427 11.8209 14.5072 0.656308 -0.344755 0.671121
6.56381 11.4277 15.2104 0.676264 -0.285364 0.679085
6.67898 10.4007 14.6851 0.674864 -0.271035 0.686364
6.80224 9.4159 14.1955 0.637343 -0.267896 0.721602
6.82616 8.48286 13.808 0.571163 -0.257203 0.7795
7.0534 7.59169 13.3641 0.520561 -0.259967 0.813285
7.17742 6.64063 12.9317 0.49842 -0.318083 0.806474
7.27695 5.5834 12.4621 0.41314 -0.314371 0.854009
7.39743 4.58955 12.0108 0.37003 -0.390374 0.842861
7.38752 3.67636 11.5463 0.361668 -0.441249 0.821277
7.37505 2.69143 10.9882 0.367933 -0.521075 0.770002
7.0454 1.8445 10.5294 0.456443 -0.575951 0.678182
6.54173 0.996486 10.1169 0.428887 -0.629389 0.647618
6.62201 0.520886 9.57773 0.402699 -0.659801 0.634426
7.55421 0.498372 9.03509 0.297114 -0.690987 0.658914
8.53595 0.481186 8.70389 0.160278 -0.690431 0.705419
9.56263 0.493533 8.53263 0.0655805 -0.65773 0.750393
10.57 0.486252 8.54844 -0.08602 -0.69427 0.714556
11.5975 0.505883 8.71302 -0.115707 -0.694295 0.710329
12.597 0.495909 8.93562 -0.227932 -0.691294 0.685137
13.5837 0.510279 9.42641 -0.361858 -0.659836 0.65854
14.0885 0.88219 10.0866 -0.403619 -0.618413 0.674257
13.5059 1.739 10.5288 -0.38737 -0.598837 0.700926
13.0903 2.58346 10.9759 -0.37328 -0.545394 0.75021
12.7857 3.4705 11.4435 -0.335702 -0.545683 0.767812
12.5725 4.523 11.9777 -0.310268 -0.436668 0.844426
12.6914 5.46764 12.4089 -0.325232 -0.35607 0.876017
12.8312 6.4347 12.8647 -0.382944 -0.311892 0.869487
13.0512 7.40881 13.3363 -0.474101 -0.289398 0.831501
13.1901 8.33369 13.747 -0.519384 -0.282057 0.806633
13.3307 9.44755 14.2515 -0.598541 -0.286434 0.748134
13.3657 10.4099 14.657 -0.700801 -0.298273 0.647993
13.3507 11.4975 15.1655 -0.746609 -0.311015 0.588086
13.2723 12.419 15.6256 -0.755433 -0.391197 0.524733
13.023 13.32 16.0667 -0.737304 -0.483679 0.471499
12.5728 14.248 16.5442 -0.641151 -0.65116 0.405944
11.9088 14.9293 16.8354 -0.51739 -0.797127 0.311283
11.0291 15.4695 17.1001 -0.299192 -0.925472 0.232348
10.041 15.6949 17.1995 -0.0475789 -0.992888 0.109133
8.94894 15.4754 17.1321 0.290042 -0.936032 0.199299
8.07418 15.0503 16.9095 0.474887 -0.844587 0.245953
7.352 14.1664 16.5103 0.7006 -0.571486 0.424938
6.93911 13.275 16.0809 0.712784 -0.540706 0.446739
6.62478 12.3028 15.6036 0.688349 -0.464504 0.555756
6.56029 11.563 15.2726 0.676696 -0.291807 0.67596
8.02823 12.2327 14.1786 0.589141 -0.309321 0.746481
8.92073 12.4848 13.7466 0.334977 -0.276413 0.90077
9.95503 12.5759 13.5198 0.151416 -0.17321 0.973176
10.969 12.5248 13.5592 -0.329605 -0.248592 0.910803
11.8593 12.2492 14.0752 -0.603787 -0.285924 0.744103
12.0094 12.194 14.1748 -0.601402 -0.293763 0.74298
11.9116 11.2462 13.7985 -0.535462 -0.232029 0.812061
10.9799 11.4442 13.3376 -0.280054 -0.266023 0.922389
9.9424 11.4866 13.2966 0.14394 -0.243457 0.959171
8.9181 11.4245 13.4805 0.189893 -0.243484 0.951134
7.99161 11.2564 13.8168 0.583032 -0.26401 0.768357
8.21178 10.3238 13.4531 0.420591 -0.239082 0.875182
9.37543 10.4602 13.1607 0.194911 -0.18839 0.962559
10.4836 10.497 13.0229 0.0210057 -0.239898 0.970571
11.4606 10.3857 13.2776 -0.512831 -0.186263 0.838039
11.8998 10.2905 13.5162 -0.525059 -0.233143 0.818509
11.5912 9.41616 13.1061 -0.476776 -0.198587 0.856299
10.6166 9.53914 12.7712 -0.141495 -0.197169 0.970105
9.53311 9.53174 12.8755 0.277881 -0.28976 0.915872
8.49876 9.4217 13.1721 0.312989 -0.215661 0.924948
8.41922 9.41106 13.1978 0.350862 -0.203158 0.914124
8.50566 8.517 12.8896 0.356821 -0.304779 0.883056
9.49652 8.61662 12.5884 0.283554 -0.30467 0.909271
10.5157 8.60982 12.5878 -0.168721 -0.192165 0.96675
11.5513 8.50068 12.8913 -0.390923 -0.227024 0.891986
11.3902 7.62225 12.6359 -0.31343 -0.228518 0.921706
10.3874 7.70121 12.4102 -0.135929 -0.152682 0.978883
9.35548 7.70137 12.4222 0.151417 -0.110384 0.982287
8.71894 7.65777 12.5415 0.313132 -0.18494 0.931529
8.85155 6.77721 12.3563 0.173503 -0.191705 0.965995
9.96951 6.82217 12.2204 0.0224001 -0.170529 0.985098
10.9753 6.789 12.3232 -0.220458 -0.243342 0.944554
11.1601 6.7751 12.3615 -0.256369 -0.21391 0.942612
11.0129 5.93745 12.0875 -0.168402 -0.308493 0.936201
9.89521 5.96847 12.0156 0.0323063 -0.326837 0.944528
8.97327 5.93918 12.0823 0.119238 -0.325101 0.938132
9.12621 5.13575 11.7497 0.0972955 -0.404282 0.909445
10.1307 5.16072 11.6999 -0.0233388 -0.387922 0.921397
10.7587 5.13863 11.742 -0.124543 -0.357342 0.925632
10.8612 4.33769 11.4108 -0.177872 -0.433869 0.883244
9.78541 4.36921 11.3491 0.0368477 -0.426022 0.903962
9.13339 4.344 11.396 0.111567 -0.434434 0.893767
9.13286 3.57697 11.0039 0.153432 -0.480394 0.863528
10.192 3.61399 10.9424 0.0234648 -0.471794 0.881397
10.9373 3.57157 11.0156 -0.171286 -0.520514 0.836496
11.3138 2.82249 10.5867 -0.130346 -0.571494 0.810188
10.2859 2.88819 10.4886 -0.0454084 -0.591314 0.805162
9.13803 2.84587 10.5508 0.157525 -0.560926 0.812741
9.13673 2.84576 10.551 0.16186 -0.554296 0.81643
8.87307 2.13073 10.0689 0.180234 -0.603606 0.776644
9.96199 2.2006 9.97986 -0.0364339 -0.577343 0.815688
10.9839 2.14816 10.048 -0.104429 -0.595997 0.796167
11.5172 2.10727 10.0998 -0.132115 -0.623201 0.770822
11.9812 13.178 14.5885 -0.669591 -0.450178 0.590751
11.2422 13.5819 14.0216 -0.561381 -0.230722 0.794744
10.2588 13.8221 13.7329 -0.0159355 -0.128634 0.991564
9.26836 13.6826 13.9065 0.38845 -0.192309 0.901179
8.43459 13.3531 14.3966 0.556337 -0.384677 0.736554
8.09502 13.1962 14.6262 0.643258 -0.433327 0.631226
8.57909 14.2717 14.9867 0.603213 -0.621608 0.499737
9.44918 14.6249 14.5792 0.0969953 -0.945663 0.310343
10.4782 14.5968 14.5725 -0.161787 -0.851092 0.499466
11.3427 14.2859 14.9373 -0.616418 -0.616395 0.489986
11.3639 14.2747 14.9495 -0.609723 -0.629736 0.481321
11.5089 14.1972 15.0319 -0.623249 -0.622955 0.472746
