1.15434 37.3787 5.61927 0.744056 -0.645532 0.16702
1.17871 36.9988 4.57788 0.749529 -0.607471 0.26199
1.18888 36.4625 3.6206 0.772441 -0.515397 0.370592
1.17545 35.7257 2.85356 0.682241 -0.505632 0.52663
1.21415 34.9079 2.18115 0.710596 -0.374582 0.595601
1.2944 34.0781 1.61065 0.709119 -0.322049 0.627235
1.66995 34.5584 1.47092 0.684701 -0.370375 0.627622
2.34434 35.5308 1.39102 0.608726 -0.473812 0.63636
3.06021 36.4002 1.39362 0.571806 -0.553041 0.60577
3.81111 37.1408 1.37484 0.543951 -0.573373 0.612261
4.65942 37.7461 1.34332 0.360342 -0.650223 0.668852
5.59228 38.2733 1.38752 0.277375 -0.661341 0.696915
6.26453 38.691 1.53292 0.272974 -0.68764 0.672779
5.23099 38.739 2.05384 0.325866 -0.732011 0.597864
4.3788 38.7584 2.66153 0.416982 -0.738118 0.529964
3.59617 38.7746 3.37715 0.494547 -0.764362 0.409289
3.05581 38.7896 4.21724 0.612461 -0.734461 0.292333
2.67075 38.8549 5.34456 0.677543 -0.699384 0.227592
2.59773 38.9241 6.38293 0.655422 -0.752797 0.0560621
2.65724 38.8904 7.40137 0.586104 -0.794598 -0.158218
2.92311 38.8577 8.36387 0.613302 -0.759035 -0.218367
2.94889 38.6247 9.15129 0.574568 -0.778087 -0.250818
2.23714 37.8149 9.50606 0.658945 -0.663841 -0.353705
1.66465 37.0512 9.83249 0.684629 -0.648064 -0.33361
1.27887 36.8442 9.43439 0.691588 -0.650328 -0.314291
1.25687 37.2516 8.43767 0.721173 -0.658415 -0.214879
1.21428 37.4867 7.45496 0.689653 -0.701834 -0.178349
1.17587 37.5246 6.341 0.746186 -0.660106 0.0864115
1.16203 37.4241 5.80939 0.739541 -0.66082 0.12805
0.367247 36.4862 6.07989 0.825389 -0.551292 0.109106
0.410582 36.5899 7.09959 0.798721 -0.590169 -0.117238
0.427979 36.3785 8.10349 0.789614 -0.589406 -0.170421
0.436248 36.0127 9.10346 0.753285 -0.591323 -0.287912
0.479639 35.4898 10.1298 0.760295 -0.537189 -0.365082
0.483058 34.91 10.9496 0.751617 -0.525811 -0.398151
0.481379 34.236 11.7719 0.736715 -0.499787 -0.455482
0.497195 33.5297 12.5138 0.727 -0.47376 -0.497013
0.662332 33.827 12.4751 0.733571 -0.473127 -0.487843
0.995661 34.6771 12.0945 0.686752 -0.551674 -0.473312
1.4191 35.5757 11.6351 0.683247 -0.563137 -0.464811
1.85888 36.4185 11.2097 0.670299 -0.585174 -0.456179
2.44815 37.2765 10.7987 0.589051 -0.684248 -0.429911
3.12105 38.0447 10.4302 0.555413 -0.6965 -0.454318
3.89659 38.8 10.0431 0.470196 -0.783218 -0.406798
4.71968 39.3951 9.75243 0.411687 -0.838178 -0.356491
4.69391 39.6486 9.06374 0.412034 -0.850157 -0.326861
4.06493 39.6175 8.26418 0.505231 -0.80486 -0.311356
3.64407 39.6111 7.33167 0.51497 -0.840436 -0.168739
3.60433 39.6547 6.31505 0.504929 -0.862639 0.020202
3.68202 39.6133 5.25587 0.563742 -0.796655 0.218028
4.08902 39.5644 4.32073 0.513291 -0.78044 0.352906
4.79461 39.564 3.55728 0.409969 -0.777596 0.475446
5.68599 39.5902 2.92008 0.353874 -0.807121 0.472576
6.66534 39.5689 2.42249 0.185653 -0.762101 0.618595
7.76528 39.5751 2.15454 0.11535 -0.810416 0.574346
8.77449 39.5916 2.01178 0.0865568 -0.811746 0.577561
9.88416 39.5618 1.86794 0.0267921 -0.779229 0.626167
11.0086 39.5532 1.94781 -0.105635 -0.765598 0.633894
12.0064 39.6074 2.20039 -0.135599 -0.780918 0.609737
13.097 39.6136 2.51464 -0.246549 -0.793908 0.551333
13.9749 39.6097 3.02054 -0.319834 -0.820482 0.473831
14.8745 39.6055 3.67789 -0.363225 -0.830567 0.422169
15.6985 39.5983 4.50571 -0.459901 -0.809807 0.364285
16.1118 39.655 5.40851 -0.464409 -0.860432 0.203152
16.2721 39.6523 6.45276 -0.557815 -0.829681 -0.0134521
16.1253 39.6415 7.55179 -0.447278 -0.883567 -0.138748
15.6138 39.6706 8.5175 -0.420089 -0.876658 -0.234318
15.0501 39.6753 9.35038 -0.394042 -0.875753 -0.278904
15.7526 39.1191 9.88415 -0.422117 -0.841362 -0.337532
16.5127 38.5193 10.1847 -0.481988 -0.773143 -0.411968
17.2072 37.8542 10.4968 -0.575619 -0.700063 -0.42027
17.8188 37.0308 10.8851 -0.630553 -0.64415 -0.432963
18.3654 36.1905 11.3209 -0.626577 -0.629886 -0.458887
18.8386 35.3606 11.7396 -0.658729 -0.585544 -0.472246
19.2196 34.4776 12.2049 -0.700522 -0.516855 -0.491834
19.4875 34.3195 11.9873 -0.704121 -0.504214 -0.499981
19.4882 34.9942 11.2503 -0.684134 -0.562976 -0.463667
19.4694 35.7132 10.3791 -0.663741 -0.616381 -0.423701
19.5338 36.2829 9.31819 -0.739962 -0.606781 -0.290299
19.5611 36.6666 8.3293 -0.77322 -0.594726 -0.220073
19.5399 36.9756 7.2944 -0.725864 -0.680916 -0.0973367
19.5372 36.9398 6.18576 -0.734968 -0.66509 0.121414
19.5257 36.6898 5.18499 -0.740889 -0.64684 0.180769
19.4852 36.3073 4.18685 -0.720857 -0.601516 0.344302
19.5447 35.6428 3.41065 -0.749742 -0.47787 0.457742
19.5364 34.9001 2.70656 -0.737159 -0.437044 0.51486
19.4931 34.0818 2.08782 -0.694159 -0.357147 0.624948
19.5252 33.0513 1.60402 -0.724211 -0.272492 0.633456
19.5061 32.0993 1.20627 -0.706094 -0.248785 0.662976
19.4585 31.1584 0.861095 -0.68367 -0.180588 0.707095
19.428 30.1172 0.583013 -0.666692 -0.160352 0.72788
19.0962 31.0624 0.495159 -0.667715 -0.169092 0.724958
18.7784 32.1597 0.485877 -0.650385 -0.221872 0.725927
18.4347 33.1289 0.525297 -0.652866 -0.323554 0.684893
17.97 34.0288 0.539023 -0.651781 -0.365778 0.66437
17.3189 34.9832 0.503598 -0.579263 -0.440671 0.685265
16.587 35.7896 0.442809 -0.462949 -0.44671 0.76559
15.8126 36.4632 0.461217 -0.434927 -0.523297 0.732329
14.8555 37.1516 0.47141 -0.367873 -0.566509 0.736008
13.8727 37.6452 0.531153 -0.276445 -0.694138 0.664643
12.8408 38.0151 0.561338 -0.204993 -0.732937 0.648677
11.795 38.2067 0.549943 -0.121614 -0.741143 0.660237
10.7844 38.3151 0.519679 -0.069687 -0.731131 0.678501
9.76695 38.3285 0.50089 -0.00123152 -0.695382 0.718639
8.69184 38.2385 0.475591 0.0848013 -0.682086 0.726338
7.65651 38.023 0.442269 0.163401 -0.618256 0.768804
6.55154 37.7096 0.483735 0.245765 -0.651527 0.717541
5.57116 37.2535 0.457222 0.337788 -0.58627 0.736333
4.58837 36.6605 0.447642 0.368462 -0.555521 0.745404
3.71262 35.9547 0.466871 0.508746 -0.454217 0.731344
3.04556 35.1104 0.445303 0.598683 -0.441841 0.668082
2.40705 34.2044 0.497057 0.645762 -0.336036 0.685618
1.96179 33.1684 0.485083 0.658588 -0.271789 0.701707
1.631 32.1525 0.482909 0.676167 -0.203131 0.708167
1.32385 31.1822 0.508068 0.691045 -0.195332 0.695915
1.04756 30.2073 0.517246 0.690217 -0.183094 0.700025
0.74992 29.0661 0.528884 0.699488 -0.180526 0.691466
0.505503 29.0582 0.774365 0.700717 -0.181422 0.689987
0.509036 30.1731 1.06196 0.707508 -0.180033 0.683389
0.508714 31.1716 1.35311 0.717223 -0.210632 0.664142
0.463799 32.114 1.71385 0.750412 -0.215805 0.624722
0.463666 33.1371 2.13783 0.75974 -0.276077 0.588689
0.42396 34.0597 2.7331 0.796477 -0.32166 0.511248
0.384407 34.8929 3.39701 0.821277 -0.366034 0.437633
0.421526 35.6484 4.10258 0.805555 -0.454103 0.38062
0.395075 36.1759 5.13734 0.821438 -0.520295 0.233288
0.364676 36.4113 5.84211 0.842441 -0.514977 0.15739
13.5107 38.7847 1.63285 -0.231731 -0.722146 0.651772
14.4446 38.8422 2.09876 -0.289011 -0.771085 0.566258
15.263 38.8944 2.70352 -0.340228 -0.80133 0.492049
16.0744 38.8636 3.43293 -0.468561 -0.768952 0.43493
16.7574 38.8765 4.33807 -0.53916 -0.761263 0.359356
17.148 38.937 5.35457 -0.572422 -0.800839 0.175863
17.3063 38.9461 6.38468 -0.587889 -0.808937 -0.00288678
17.2462 38.9593 7.43095 -0.590372 -0.802013 -0.0907492
16.9216 39.0274 8.37501 -0.466165 -0.847732 -0.253064
17.132 38.6434 9.12598 -0.489159 -0.806513 -0.331526
17.8322 37.9326 9.4449 -0.611654 -0.704486 -0.359926
18.4672 37.1281 9.80159 -0.628588 -0.651054 -0.425448
18.6972 37.3698 8.98846 -0.70797 -0.63319 -0.312808
18.7049 37.7342 7.88935 -0.691877 -0.703607 -0.161999
18.649 37.8666 6.89958 -0.655462 -0.754695 -0.0234642
18.6621 37.8086 5.85394 -0.717659 -0.687196 0.10636
18.6341 37.5403 4.85155 -0.656691 -0.704683 0.268553
18.6064 37.0604 3.80319 -0.62536 -0.679298 0.38403
18.6742 36.4306 2.97963 -0.65083 -0.566925 0.504991
18.6603 35.66 2.2395 -0.657589 -0.481101 0.579344
18.5505 34.7863 1.53628 -0.633371 -0.408506 0.65724
17.9266 35.5583 1.42989 -0.604234 -0.473612 0.640775
17.2226 36.3087 1.37423 -0.543002 -0.561517 0.624349
16.3398 37.0645 1.38314 -0.468619 -0.614599 0.634558
15.5134 37.6892 1.39535 -0.446055 -0.644764 0.620413
14.6549 38.1962 1.45506 -0.312743 -0.679822 0.66335
13.6548 38.6515 1.53653 -0.236406 -0.718256 0.654352
13.548 38.7767 1.63717 -0.231725 -0.722146 0.651773
15.457 38.2375 1.94444 -0.424165 -0.719327 0.550139
16.4084 37.8284 2.22561 -0.476986 -0.681958 0.554452
17.3653 37.3691 2.53332 -0.585549 -0.582852 0.563396
18.0451 36.9406 2.79956 -0.594974 -0.64869 0.47456
18.1215 37.3717 3.56341 -0.591259 -0.696582 0.406431
17.1824 37.9764 3.21943 -0.553895 -0.740051 0.381478
16.3363 38.4096 2.94425 -0.469038 -0.739322 0.483121
17.1029 38.4667 4.0254 -0.587208 -0.727569 0.354726
18.0479 37.8297 4.3255 -0.607047 -0.712124 0.352666
18.1249 38.1386 5.17316 -0.641624 -0.706797 0.29792
17.6864 38.4582 5.07306 -0.618514 -0.728536 0.294406
17.8457 38.5426 6.04025 -0.63811 -0.769808 0.0145101
18.1631 38.2839 6.08298 -0.626955 -0.777631 0.0470832
18.1312 38.3029 7.01499 -0.633158 -0.773422 -0.0304709
17.8354 38.5428 7.00737 -0.625036 -0.780209 -0.0245598
17.6612 38.5903 7.98689 -0.567095 -0.815467 -0.11583
18.2152 38.1477 7.9435 -0.644091 -0.75566 -0.118844
18.1411 37.9524 8.85201 -0.598712 -0.743231 -0.298581
18.0826 37.9933 8.86169 -0.611222 -0.721762 -0.324757
18.191 36.2399 2.21801 -0.619843 -0.520199 0.587527
17.409 36.7136 1.89286 -0.527999 -0.585463 0.615182
4.41449 38.2875 2.03338 0.411413 -0.654843 0.633972
3.52177 37.885 2.35912 0.526625 -0.602583 0.599633
2.68606 37.4096 2.68559 0.566259 -0.573594 0.591895
1.80067 36.8108 3.0925 0.66457 -0.567537 0.486054
1.69994 36.7331 3.13946 0.669263 -0.554266 0.49485
1.73087 36.083 2.4719 0.632457 -0.51199 0.581262
2.65148 36.6691 2.03664 0.600466 -0.538162 0.591459
2.86582 36.7998 1.94349 0.588021 -0.555351 0.588062
3.10968 38.3285 3.26906 0.61334 -0.655311 0.440887
2.2434 37.7648 3.63798 0.638351 -0.672715 0.374116
1.62754 37.2223 3.95054 0.689174 -0.639058 0.341531
1.62159 37.6062 4.82545 0.711417 -0.654674 0.255515
2.34762 38.2667 4.53611 0.674273 -0.692932 0.255343
2.08301 38.3488 5.64737 0.696901 -0.699937 0.156261
1.61048 37.8921 5.76651 0.701437 -0.693314 0.165234
1.71602 38.1155 6.7437 0.712291 -0.700568 -0.0429553
2.10202 38.4769 6.71725 0.665027 -0.74547 -0.0448738
2.16082 38.3712 7.76818 0.681528 -0.717763 -0.142602
1.66406 37.9005 7.74334 0.695444 -0.699513 -0.164433
1.7255 37.6658 8.68652 0.697334 -0.67422 -0.243215
2.25456 38.1695 8.76702 0.70251 -0.662446 -0.260087
2.27451 38.1892 8.77075 0.690426 -0.668467 -0.276521
