4.8166 1.30599 9.56414 0.478899 -0.638146 0.602776
5.54907 1.19961 8.8827 0.451326 -0.657675 0.603132
6.41343 1.16354 8.26715 0.38072 -0.67237 0.63459
7.50193 1.13074 7.72321 0.248149 -0.704489 0.664918
8.46899 1.11967 7.43854 0.143436 -0.66709 0.731038
9.49562 1.1601 7.3166 0.0845701 -0.683908 0.72465
10.5052 1.14087 7.31679 -0.0569512 -0.673213 0.737252
11.4971 1.15793 7.4541 -0.10105 -0.673014 0.732695
12.499 1.13991 7.68549 -0.217659 -0.672309 0.707549
13.4553 1.16461 8.06259 -0.279484 -0.685591 0.672085
14.3847 1.16594 8.59233 -0.426827 -0.6543 0.62422
15.261 1.19388 9.24658 -0.475863 -0.631193 0.612495
15.2215 1.86355 9.8337 -0.498119 -0.580522 0.643498
14.8117 2.74207 10.3202 -0.458595 -0.594018 0.660934
14.4889 3.71038 10.8507 -0.494263 -0.508604 0.705001
14.365 4.70016 11.304 -0.505424 -0.383912 0.771879
14.2934 5.75331 11.7805 -0.51474 -0.373605 0.771569
14.2746 6.79395 12.2796 -0.541333 -0.309123 0.781922
14.3386 7.7248 12.7092 -0.589975 -0.293742 0.751045
14.3961 8.69689 13.144 -0.65514 -0.29396 0.695974
14.4218 9.61069 13.5877 -0.693395 -0.285738 0.661471
14.4482 10.6192 14.0571 -0.735044 -0.277029 0.618842
14.4127 11.6683 14.5308 -0.749359 -0.301225 0.589682
14.3354 12.631 14.9704 -0.766087 -0.365932 0.528398
14.0776 13.5425 15.3273 -0.74881 -0.456033 0.47929
13.7426 14.4255 15.7493 -0.738611 -0.532806 0.412389
13.2989 15.2646 16.1497 -0.675044 -0.656862 0.335928
12.6021 16.0283 16.5218 -0.609813 -0.774759 0.166749
11.6789 16.6487 16.8165 -0.410117 -0.901319 0.13198
10.5726 17.0277 16.97 -0.246115 -0.966813 0.0685631
9.52691 17.0957 17.0485 0.131835 -0.989051 0.0663195
8.42845 16.751 16.8278 0.370778 -0.920306 0.122938
7.41691 16.1314 16.5448 0.570967 -0.799232 0.182471
6.69136 15.2646 16.212 0.712876 -0.628384 0.310527
6.26379 14.4322 15.8357 0.733126 -0.538519 0.415356
5.85443 13.4784 15.3392 0.758057 -0.489424 0.429739
5.62172 12.5314 14.9228 0.762821 -0.365741 0.532255
5.57472 11.5462 14.4542 0.721708 -0.291877 0.627644
5.57599 10.5141 13.9742 0.69123 -0.288155 0.662697
5.61732 9.4566 13.5461 0.661893 -0.21773 0.71728
5.65493 8.3451 13.0197 0.620708 -0.33365 0.709507
5.68624 7.38506 12.5256 0.615049 -0.327278 0.717359
5.71321 6.38731 12.0658 0.581476 -0.302725 0.755145
5.72427 5.44567 11.6685 0.538586 -0.307558 0.783927
5.72432 4.45394 11.234 0.540926 -0.378333 0.751174
5.57313 3.36124 10.731 0.486992 -0.435942 0.756823
5.38889 2.46543 10.2552 0.50133 -0.537257 0.67825
4.99181 1.65602 9.78958 0.49658 -0.622244 0.604916
4.8798 1.44859 9.66206 0.481317 -0.631109 0.608306
4.112 1.4444 10.3187 0.530475 -0.612883 0.585331
4.57019 2.28383 10.7449 0.535386 -0.55452 0.637079
4.76894 3.21264 11.233 0.548508 -0.43743 0.712154
4.91773 4.13184 11.6792 0.587279 -0.427514 0.687266
4.96267 5.12433 12.1773 0.623319 -0.322839 0.711661
4.94351 6.1591 12.6391 0.66449 -0.301331 0.683851
4.95494 7.1318 13.1004 0.695696 -0.307729 0.648944
4.92936 8.04106 13.5639 0.68431 -0.315353 0.657134
4.90087 8.95933 14.0204 0.68127 -0.306207 0.664762
4.88988 9.86357 14.4516 0.714448 -0.287856 0.637676
4.90342 10.8283 14.9106 0.764723 -0.30674 0.566643
4.96305 11.7732 15.3914 0.775754 -0.353341 0.522755
5.11848 12.7095 15.8538 0.787762 -0.405888 0.462346
5.42898 13.5949 16.2666 0.771495 -0.500161 0.393236
5.81409 14.5025 16.7489 0.735787 -0.588686 0.332866
6.40968 15.363 17.1469 0.688046 -0.684999 0.239518
7.18171 16.1648 17.5163 0.530836 -0.82618 0.183687
8.09758 16.6891 17.7345 0.418622 -0.906791 0.0497378
9.0682 17.0887 17.9707 0.218015 -0.975847 -0.0138463
10.0721 17.1252 17.9898 -0.150831 -0.988309 -0.00785585
11.0637 16.9299 17.8807 -0.199526 -0.979784 0.0134593
12.1479 16.5688 17.7194 -0.446639 -0.889482 0.0966197
12.9396 15.9529 17.4152 -0.623588 -0.770664 0.131208
13.6293 15.2846 17.0768 -0.671141 -0.699643 0.24509
14.1796 14.4924 16.6985 -0.781352 -0.509842 0.359304
14.5147 13.6486 16.2603 -0.788241 -0.480136 0.384744
14.8691 12.7285 15.8468 -0.786678 -0.458909 0.412966
15.01 11.8325 15.4142 -0.767995 -0.328711 0.549663
15.0712 10.8533 14.9357 -0.742107 -0.316226 0.590995
15.1096 9.91128 14.502 -0.720077 -0.295715 0.627715
15.0962 9.01796 14.0515 -0.704506 -0.318523 0.634204
15.0919 8.09558 13.5925 -0.69149 -0.305368 0.654666
15.0634 6.97285 13.0385 -0.66871 -0.310745 0.675473
15.0405 6.06908 12.5814 -0.674834 -0.348055 0.650735
15.0894 5.16306 12.1336 -0.657399 -0.39619 0.640983
15.1857 4.13116 11.6367 -0.595217 -0.427457 0.680439
15.4156 3.15376 11.1526 -0.603867 -0.504803 0.616862
15.7468 2.28999 10.7212 -0.616884 -0.553527 0.55952
16.1119 1.37595 10.2388 -0.622184 -0.551414 0.555715
16.4972 0.505578 9.72275 -0.594938 -0.604938 0.529245
15.7443 0.438925 8.8594 -0.538559 -0.621829 0.568579
14.9503 0.426127 8.22474 -0.44828 -0.639646 0.624418
14.0505 0.426874 7.62616 -0.370137 -0.655575 0.657347
12.9721 0.423573 7.15385 -0.236384 -0.686475 0.687659
11.9904 0.420987 6.85381 -0.154179 -0.682928 0.71403
10.8485 0.417973 6.67686 -0.088985 -0.686239 0.721912
9.76518 0.417155 6.63209 0.0342637 -0.70139 0.711954
8.75257 0.414116 6.72557 0.108602 -0.679217 0.725858
7.74873 0.404879 6.91437 0.195576 -0.687815 0.698702
6.7459 0.437707 7.3575 0.317528 -0.656001 0.6846
5.74222 0.425336 7.90266 0.421841 -0.659997 0.621654
4.94413 0.45006 8.52086 0.480021 -0.650444 0.588634
4.09628 0.436793 9.24061 0.530985 -0.636757 0.559102
3.73412 0.820019 10.0107 0.546874 -0.61292 0.570313
4.11162 1.44372 10.3184 0.518718 -0.617089 0.591544
5.60897 2.02063 9.69771 0.46486 -0.611637 0.640161
6.64788 2.36402 9.30998 0.397605 -0.58738 0.704908
7.67829 2.60423 9.02924 0.256885 -0.599121 0.75833
8.67873 2.76464 8.83601 0.225421 -0.596632 0.770205
9.76636 2.84518 8.74063 0.014168 -0.618839 0.78539
10.872 2.81504 8.77133 -0.0664467 -0.578673 0.812848
11.8802 2.72987 8.87086 -0.189611 -0.561914 0.805171
12.9576 2.54044 9.09464 -0.300375 -0.587173 0.751667
13.9667 2.28703 9.383 -0.410143 -0.600197 0.686692
14.6042 2.07968 9.61125 -0.446235 -0.584963 0.677268
14.202 2.91509 10.0571 -0.456354 -0.57135 0.682129
13.1902 3.20314 9.68805 -0.378517 -0.561354 0.73594
12.2151 3.38705 9.44715 -0.245131 -0.586844 0.771703
11.1625 3.49909 9.29753 -0.114125 -0.557881 0.822037
10.1195 3.53928 9.24513 -0.023986 -0.582083 0.812776
9.00488 3.50587 9.28495 0.0886141 -0.56849 0.817904
7.99884 3.37856 9.45535 0.267774 -0.528708 0.80546
6.98125 3.16693 9.73789 0.394118 -0.531696 0.749647
6.07357 2.89252 10.0942 0.483208 -0.507376 0.713498
6.16388 3.69157 10.5605 0.439145 -0.467049 0.767474
7.09652 3.92624 10.2157 0.35988 -0.530377 0.767585
8.19163 4.15147 9.86971 0.289783 -0.48559 0.82476
9.19128 4.24193 9.74089 0.0850087 -0.517804 0.851265
10.2977 4.26208 9.71229 0.0348781 -0.477896 0.877724
11.4263 4.21182 9.78904 -0.133459 -0.454554 0.880664
12.5253 4.06805 10.0073 -0.24832 -0.52217 0.81589
13.4554 3.8584 10.3129 -0.450715 -0.440092 0.776644
14.0827 3.67717 10.5756 -0.448608 -0.488169 0.748627
13.9335 4.52663 10.9637 -0.478421 -0.37229 0.795307
12.9248 4.78946 10.5331 -0.382717 -0.356173 0.852449
11.8945 4.94952 10.26 -0.231208 -0.393397 0.889821
10.8906 5.042 10.0936 -0.0954979 -0.419351 0.902787
9.77983 5.04215 10.0982 0.0554638 -0.391895 0.918337
8.76684 5.0043 10.165 0.126341 -0.391012 0.911673
7.71791 4.86357 10.3868 0.331606 -0.351875 0.875341
6.74394 4.6427 10.7705 0.389265 -0.355295 0.849846
6.25125 4.53084 10.956 0.435817 -0.385637 0.813232
6.24043 5.38923 11.3052 0.485246 -0.288096 0.825552
7.15088 5.60197 10.9037 0.408613 -0.297615 0.862822
8.09445 5.76769 10.6052 0.248014 -0.341077 0.906728
9.22932 5.84093 10.4751 0.0606784 -0.395159 0.916607
10.2604 5.87221 10.408 0.0197267 -0.336264 0.941561
11.2898 5.83111 10.4949 -0.177823 -0.396071 0.900837
12.3104 5.71585 10.724 -0.286612 -0.388726 0.87564
13.2841 5.53957 11.055 -0.468649 -0.367135 0.80348
13.9029 5.3786 11.3477 -0.485333 -0.374176 0.790218
13.8458 6.23888 11.728 -0.52368 -0.382647 0.761144
12.8917 6.46631 11.2684 -0.394959 -0.373802 0.839213
11.9414 6.60504 10.9717 -0.275015 -0.296575 0.914555
10.9014 6.7127 10.7076 -0.203436 -0.256081 0.945006
9.85147 6.74133 10.6578 0.0895183 -0.157203 0.983501
8.80238 6.68854 10.7811 0.140764 -0.197649 0.970114
7.80134 6.58942 10.9709 0.277437 -0.331295 0.901816
6.8771 6.4288 11.314 0.44038 -0.305274 0.844318
6.1379 6.24081 11.6924 0.551966 -0.329316 0.766084
6.18867 7.14896 12.0125 0.564345 -0.327578 0.757765
7.07698 7.35331 11.5498 0.449482 -0.321133 0.83357
7.99659 7.5066 11.1691 0.365982 -0.254585 0.895122
9.01217 7.61061 10.8865 0.195486 -0.149429 0.969255
10.0397 7.6517 10.7724 -0.00607396 -0.177054 0.984182
11.0371 7.60483 10.9388 -0.234827 -0.181841 0.954877
12.1438 7.47744 11.2862 -0.351408 -0.196771 0.915311
13.1943 7.27099 11.7556 -0.491275 -0.317245 0.811175
13.7889 7.11904 12.0728 -0.529569 -0.30764 0.790515
13.9533 7.98458 12.4887 -0.555504 -0.254206 0.791703
12.9703 8.23816 11.9245 -0.487228 -0.25249 0.835977
12.081 8.4184 11.4838 -0.454056 -0.212141 0.865349
11.1347 8.53176 11.1575 -0.276471 -0.161811 0.947302
10.0963 8.58471 10.9321 -0.127257 -0.143667 0.98141
9.03512 8.55749 10.9952 0.271584 -0.165588 0.948063
8.07394 8.4502 11.3555 0.415146 -0.159653 0.895637
7.1002 8.27335 11.8306 0.515899 -0.240646 0.822154
6.25797 8.04975 12.3656 0.585292 -0.3262 0.742312
6.15374 8.01909 12.4359 0.596726 -0.333624 0.729803
6.11778 8.89369 12.8785 0.615535 -0.292707 0.731738
6.8906 9.15099 12.2788 0.618381 -0.247192 0.74599
7.82696 9.38664 11.6322 0.539742 -0.127403 0.832134
8.76688 9.52167 11.1583 0.388925 -0.0598505 0.919323
9.79463 9.57646 10.9953 -0.0375921 -0.0355135 0.998662
10.7919 9.55732 11.157 -0.260453 -0.0422919 0.96456
11.7589 9.44495 11.497 -0.372267 -0.100596 0.922658
12.6517 9.25921 12.0204 -0.521193 -0.164935 0.837349
13.6391 9.00922 12.5898 -0.537597 -0.247873 0.805946
13.874 8.93036 12.7603 -0.633637 -0.276039 0.722708
13.9869 9.82009 13.2189 -0.687065 -0.275918 0.672168
13.1495 10.1119 12.5894 -0.5804 -0.222134 0.783449
12.3217 10.3593 11.9798 -0.636448 -0.144242 0.757712
11.4737 10.5343 11.465 -0.473499 -0.0161286 0.880647
10.3872 10.6433 11.164 -0.161481 -0.180271 0.970271
9.27089 10.6443 11.1175 0.0732476 -0.0459406 0.996255
8.23081 10.5005 11.5171 0.522109 -0.0762391 0.849464
7.38712 10.2844 12.1562 0.637467 -0.181982 0.748678
6.61033 10.0384 12.7758 0.674125 -0.191837 0.71327
6.04293 9.8262 13.2454 0.68035 -0.184163 0.709371
5.98724 10.7564 13.6493 0.694657 -0.281818 0.661838
6.76586 11.0928 12.9649 0.714798 -0.242423 0.655968
7.49803 11.3823 12.3024 0.695846 -0.129442 0.70643
8.42156 11.6381 11.5784 0.591608 -0.148796 0.792376
9.45836 11.73 11.1904 -0.0526413 -0.0375967 0.997905
10.5179 11.7239 11.3217 -0.178969 -0.0392787 0.98307
11.4834 11.6508 11.598 -0.347654 -0.103749 0.931865
12.2851 11.4441 12.158 -0.665077 -0.205656 0.717899
13.1205 11.1283 12.8646 -0.664865 -0.224533 0.712418
13.864 10.8221 13.4826 -0.709208 -0.262343 0.65437
14.1 10.7141 13.6955 -0.729233 -0.272491 0.627669
14.005 11.6865 14.0263 -0.741327 -0.296465 0.602116
13.2653 12.0925 13.3242 -0.741109 -0.274276 0.612806
12.5739 12.4411 12.6787 -0.669099 -0.154818 0.726868
11.6613 12.7677 11.9324 -0.623168 -0.13112 0.771018
10.7478 12.9128 11.3043 -0.453045 0.150183 0.878746
9.77316 12.9408 11.0202 -0.0222677 0.331919 0.943045
8.82965 12.894 11.5601 0.654528 -0.22881 0.720583
8.0216 12.702 12.1655 0.613388 -0.278503 0.739048
7.19158 12.3371 12.9323 0.74377 -0.254946 0.617906
6.48577 11.952 13.6401 0.731962 -0.271069 0.625102
5.95623 11.6953 14.0988 0.688121 -0.290351 0.66497
6.01112 12.6592 14.5104 0.715417 -0.3229 0.619608
6.7879 13.1075 13.8488 0.743837 -0.322361 0.585482
7.48486 13.5551 13.2274 0.713928 -0.399171 0.575299
8.19911 13.9799 12.5415 0.764662 -0.044609 0.642886
8.81941 14.3378 11.6696 0.800434 0.107391 0.589723
9.37784 14.5692 10.8737 0.783658 0.172446 0.596777
10.1793 14.5567 10.2432 0.290777 0.431235 0.854099
10.9694 14.3642 10.8555 -0.688609 0.490139 0.534398
11.5306 14.2608 11.8337 -0.852364 0.18834 0.487856
12.2166 13.8513 12.606 -0.756045 -0.293586 0.584982
12.8434 13.4121 13.3262 -0.841802 -0.249304 0.478766
13.548 12.8902 14.1148 -0.751792 -0.352766 0.557104
13.9879 12.6285 14.5157 -0.73608 -0.342167 0.584044
13.7659 13.6214 14.9219 -0.73245 -0.426593 0.530599
13.0335 14.1376 14.2945 -0.775712 -0.431671 0.460359
12.3552 14.7602 13.6019 -0.817886 -0.468226 0.334406
11.8562 15.4623 12.9196 -0.950588 -0.21371 0.225191
11.5722 16.2746 12.2459 -0.982446 -0.149348 0.111778
11.5152 17.1735 11.7542 -0.888142 0.234834 -0.395041
11.6835 17.964 11.5673 -0.889267 -0.0426825 -0.455393
11.6755 18.579 11.3976 -0.853842 -0.252298 -0.455302
11.6684 19.3494 11.187 -0.827004 -0.0305009 -0.561369
11.065 19.7572 11.9234 -0.688997 -0.211694 -0.693159
10.2221 19.9249 12.4058 0.127811 -0.532981 -0.836418
9.3442 19.4789 12.3228 0.421562 -0.413103 -0.807237
8.61156 18.7854 12.0139 0.72962 -0.158273 -0.665285
8.3306 17.9519 11.5387 0.966081 0.0699123 -0.248596
8.73132 17.106 12.0393 0.843039 -0.0134216 -0.537684
8.6533 16.1098 12.4293 0.904742 -0.417996 0.0819861
8.1466 15.4441 12.973 0.855869 -0.427434 0.291186
7.64468 14.8056 13.629 0.853981 -0.381637 0.353651
7.04797 14.2307 14.2615 0.774319 -0.442058 0.452786
6.35758 13.7416 14.8454 0.729002 -0.507017 0.459881
6.17518 13.6228 14.9919 0.710793 -0.51584 0.478207
6.59215 14.5987 15.4691 0.739169 -0.527044 0.419349
7.30814 15.2428 14.8792 0.797157 -0.446418 0.406511
7.9908 15.8461 14.3724 0.678974 -0.627801 0.380605
8.81512 16.3963 14.0521 0.564317 -0.817646 0.114027
9.64392 16.9804 13.8813 0.455983 -0.88937 -0.033158
10.6154 17.04 13.8101 -0.232414 -0.970147 -0.0692744
11.5037 16.5659 14.01 -0.597694 -0.770929 -0.220069
12.0367 15.7668 14.4207 -0.855108 -0.47661 0.204044
12.79 15.0523 14.9672 -0.709391 -0.558785 0.429563
13.3606 14.6344 15.3624 -0.718746 -0.533946 0.445315
12.7677 15.6706 15.8613 -0.685516 -0.664794 0.296845
11.9967 16.2152 15.5093 -0.585022 -0.795759 0.156579
11.1468 16.7184 15.2533 -0.452624 -0.890442 0.0473764
10.1086 17.1217 15.1079 -0.171247 -0.98405 0.0481616
9.06701 16.9174 15.1424 0.557113 -0.830351 -0.0119624
8.22703 16.393 15.3745 0.524036 -0.826612 0.205178
7.42869 15.9097 15.7488 0.687658 -0.676421 0.263781
7.20638 15.7078 15.9005 0.745389 -0.612815 0.262398
8.61048 16.7536 16.359 0.352609 -0.924313 0.145986
9.5937 17.0332 16.2468 0.1952 -0.979068 0.0576361
10.6685 16.9503 16.2825 -0.261733 -0.962441 0.0721272
11.29 16.7439 16.3678 -0.401931 -0.897208 0.182947
14.1321 1.5638 8.82916 -0.423862 -0.620213 0.660059
12.9966 1.84686 8.54918 -0.277546 -0.638617 0.71773
11.9012 2.0446 8.34259 -0.220753 -0.619433 0.753373
10.9093 2.13626 8.25028 -0.0666942 -0.62689 0.776248
9.83601 2.1791 8.20489 5.13641e-05 -0.651024 0.759057
8.72799 2.11794 8.27246 0.172502 -0.67185 0.72032
7.75066 1.95867 8.44451 0.271996 -0.663325 0.69715
6.71387 1.73042 8.68453 0.372139 -0.666471 0.64601
6.17801 1.57409 8.84347 0.402426 -0.662555 0.631724
9.36886 1.5258 7.6531 0.0801652 -0.641513 0.762912
10.5524 1.51739 7.66222 -0.0669257 -0.671877 0.737633
10.6101 1.51469 7.66499 -0.0786705 -0.672753 0.735672
