0.619147 16.4739 12.9051 0.937316 -0.255436 0.23537
0.622435 15.7328 12.1836 0.951385 -0.210852 0.224325
0.652768 14.9535 11.5498 0.941826 -0.163329 0.293746
0.68311 13.9424 10.9499 0.928026 -0.173444 0.329523
0.711042 12.9849 10.4048 0.905471 -0.175714 0.386301
0.768441 12.0917 9.93158 0.893557 -0.161801 0.418762
0.789675 11.12 9.49437 0.880287 -0.16085 0.446309
0.825413 10.1764 9.10586 0.861 -0.154562 0.484551
0.868225 9.17449 8.65101 0.83283 -0.230688 0.502973
0.898793 8.18607 8.13342 0.815621 -0.237121 0.527683
0.980184 7.20267 7.55105 0.777464 -0.305996 0.547933
1.03559 6.31651 6.95922 0.718999 -0.366867 0.590296
1.10771 5.48088 6.38703 0.70728 -0.362026 0.6072
1.17691 4.70181 5.74496 0.672685 -0.491709 0.552917
1.17645 3.88389 4.99944 0.622352 -0.530734 0.575294
1.216 3.16051 4.2751 0.610812 -0.546712 0.572725
1.23471 2.40344 3.51149 0.578636 -0.580431 0.572949
1.26133 1.64048 2.68564 0.550664 -0.61252 0.567088
1.5877 1.18379 1.90003 0.527758 -0.619583 0.581023
2.44514 1.24954 1.25639 0.474084 -0.640101 0.604571
3.38998 1.78256 1.11018 0.419838 -0.63439 0.649024
4.38753 2.32298 1.05725 0.308856 -0.617881 0.72255
5.343 2.72301 1.02865 0.254601 -0.586997 0.768513
6.39031 3.06437 0.943404 0.231273 -0.566586 0.790882
7.52916 3.27668 0.901073 0.108218 -0.570731 0.813975
8.60161 3.41868 0.895998 0.0503503 -0.559001 0.827574
9.69291 3.46318 0.865947 0.0594061 -0.52953 0.846209
10.7898 3.45242 0.837739 -0.0650954 -0.500685 0.863179
11.7969 3.30769 0.88124 -0.140244 -0.495586 0.857125
12.7721 3.07383 0.920393 -0.165763 -0.527867 0.831435
13.808 2.81082 0.950954 -0.173278 -0.573886 0.800393
14.8453 2.45681 0.980272 -0.257663 -0.551216 0.793426
15.87 1.99494 1.03358 -0.346523 -0.571265 0.744028
16.8688 1.39971 1.08783 -0.426617 -0.596686 0.679629
17.7366 1.21728 1.49515 -0.455241 -0.588357 0.668275
18.5961 1.30172 2.18607 -0.494527 -0.590131 0.638113
18.728 1.96365 2.91443 -0.544115 -0.57871 0.607481
18.7522 2.83505 3.74834 -0.561419 -0.540859 0.626323
18.8135 3.63036 4.41839 -0.579718 -0.472778 0.663632
18.8543 4.41555 5.08165 -0.663225 -0.507361 0.549855
18.8872 5.11025 5.81662 -0.67746 -0.505502 0.534264
18.956 5.91068 6.54112 -0.721923 -0.405531 0.560688
19.013 6.79282 7.21973 -0.771492 -0.342494 0.535945
19.0661 7.70385 7.82256 -0.79348 -0.279001 0.540876
19.0877 8.62737 8.34619 -0.814692 -0.262165 0.517249
19.1254 9.61356 8.85793 -0.844406 -0.197573 0.496776
19.1898 10.5582 9.31642 -0.873874 -0.168356 0.45592
19.2556 11.5489 9.81621 -0.874613 -0.15612 0.458702
19.2805 12.5335 10.1808 -0.90739 -0.107449 0.406323
19.3184 13.501 10.5609 -0.909021 -0.0999453 0.404589
19.3771 14.4655 11.1201 -0.928682 -0.173036 0.328038
19.445 15.3214 11.6859 -0.951237 -0.103878 0.290035
19.4822 16.1811 12.3979 -0.963309 -0.178698 0.200257
19.5017 16.8537 13.2153 -0.951664 -0.248649 0.179322
19.4194 17.5611 14.0863 -0.920762 -0.369262 0.125865
19.3253 18.0606 14.999 -0.905448 -0.407795 0.117759
19.2231 18.5476 16.0538 -0.834707 -0.543406 0.0889714
19.0994 18.8367 17.1696 -0.788705 -0.613945 0.0299482
18.7869 19.2125 17.9746 -0.698415 -0.71533 0.0065691
18.0812 19.8693 18.2611 -0.676968 -0.731413 -0.0821422
17.3523 20.569 18.227 -0.676064 -0.718546 -0.16318
16.6949 21.292 17.9429 -0.679323 -0.683094 -0.267066
16.0372 22.0628 17.6887 -0.662453 -0.673089 -0.328796
15.3863 22.7931 17.3945 -0.58555 -0.691699 -0.42271
14.6715 23.5076 17.2105 -0.542807 -0.638506 -0.543764
13.8606 24.1407 17.1776 -0.384508 -0.644818 -0.659853
13.1439 24.8264 16.9283 -0.356251 -0.632063 -0.688173
12.3 25.5678 16.6854 -0.320393 -0.568272 -0.757902
11.3206 26.0044 16.5769 -0.134455 -0.598499 -0.78976
10.2925 26.2063 16.541 -0.052026 -0.59154 -0.804362
9.29045 26.1334 16.5537 0.0748561 -0.609187 -0.789257
8.25807 25.8692 16.6206 0.173094 -0.633981 -0.753012
7.39422 25.3512 16.7762 0.316321 -0.591584 -0.741599
6.53412 24.6372 16.9385 0.392577 -0.601433 -0.695817
5.71033 23.9418 17.0335 0.462354 -0.614101 -0.639562
5.02703 23.226 17.2479 0.516764 -0.663446 -0.541105
4.40236 22.4694 17.5767 0.59651 -0.704702 -0.384149
3.72435 21.6832 17.8392 0.687234 -0.647521 -0.327049
3.04051 20.7922 18.1192 0.690923 -0.676395 -0.255175
2.33848 20.045 18.3282 0.670154 -0.725961 -0.154511
1.58394 19.3671 18.0193 0.687656 -0.722304 -0.0735241
1.00177 18.7733 17.4265 0.726112 -0.675142 0.130172
0.922404 18.5123 16.3809 0.853079 -0.516129 0.0765911
0.819245 18.2294 15.358 0.888432 -0.456214 0.0505673
0.702796 17.7242 14.4686 0.922419 -0.349845 0.162193
0.633696 17.0577 13.6518 0.931077 -0.313545 0.186167
0.620784 16.5891 13.0446 0.93788 -0.276229 0.209796
0.266304 15.9325 13.5577 0.902978 -0.31701 0.29006
0.255909 16.5593 14.3981 0.890435 -0.374772 0.257794
0.316337 17.2553 15.2332 0.831003 -0.45102 0.319013
0.358317 17.6416 16.1803 0.793335 -0.593909 0.133762
0.369384 17.9478 17.1993 0.770502 -0.612995 0.174359
0.406734 18.2183 18.2118 0.701196 -0.711836 0.0392799
0.98496 18.7466 18.7639 0.674439 -0.736083 -0.05755
1.77794 19.4466 19.1073 0.669755 -0.740164 -0.0598853
2.60808 20.1643 19.3355 0.645175 -0.762206 -0.051484
3.38032 20.8784 18.9994 0.645544 -0.741363 -0.183451
4.11693 21.633 18.6879 0.603294 -0.727942 -0.32315
4.82227 22.3116 18.4163 0.536496 -0.729158 -0.424689
5.5987 23.1031 18.0153 0.501715 -0.741608 -0.445309
6.36396 23.7871 17.7148 0.42557 -0.772998 -0.468354
7.29256 24.3297 17.5847 0.269068 -0.647377 -0.713096
8.10007 24.9974 17.3062 0.187951 -0.629957 -0.753544
9.13419 25.3702 17.16 0.0758755 -0.645902 -0.759639
10.2718 25.4724 17.1084 -0.0427996 -0.612423 -0.789371
11.2715 25.2209 17.2077 -0.119366 -0.666139 -0.736197
12.2109 24.7895 17.3753 -0.29779 -0.641418 -0.706577
12.9646 24.0053 17.7483 -0.322992 -0.61931 -0.7153
13.9159 23.3996 17.9557 -0.278962 -0.763166 -0.582888
14.8166 22.7977 18.1427 -0.507993 -0.76463 -0.396589
15.6405 22.0103 18.5253 -0.552247 -0.75619 -0.350998
16.4227 21.254 18.8293 -0.617487 -0.763696 -0.188023
17.2235 20.529 19.2049 -0.646416 -0.757061 -0.0948919
17.9863 19.8583 19.2947 -0.660727 -0.747922 -0.0636585
18.8075 19.1545 18.9658 -0.667126 -0.743304 -0.0494113
19.4848 18.4888 18.6186 -0.727041 -0.686206 0.0230896
19.6585 18.1538 17.5476 -0.780756 -0.613535 0.117667
19.691 17.8723 16.5172 -0.83877 -0.515714 0.174653
19.7339 17.4176 15.6015 -0.883028 -0.419833 0.209765
19.7575 16.9009 14.6377 -0.914926 -0.352268 0.197022
19.7993 16.2432 13.8644 -0.937048 -0.258418 0.233993
19.7809 15.6087 13.088 -0.936731 -0.248993 0.244112
19.7615 14.7811 12.3829 -0.925886 -0.227903 0.301324
19.746 13.8577 11.7341 -0.893202 -0.258164 0.36816
19.7237 12.9883 11.2219 -0.885036 -0.194852 0.422782
19.7314 11.9286 10.8596 -0.871216 -0.169018 0.460885
19.7063 10.9694 10.4281 -0.848156 -0.227495 0.478412
19.6837 9.92545 9.91941 -0.813116 -0.239551 0.530001
19.6569 9.04032 9.42847 -0.793824 -0.27568 0.542073
19.6485 8.10365 8.90742 -0.795591 -0.293488 0.529996
19.6497 7.15941 8.36806 -0.777681 -0.338571 0.5297
19.625 6.33622 7.75903 -0.742496 -0.399275 0.537847
19.6179 5.49227 7.0827 -0.721857 -0.44036 0.533858
19.5752 4.7395 6.3494 -0.646808 -0.526406 0.551848
19.5572 4.01539 5.56979 -0.668035 -0.539257 0.512765
19.5662 3.20069 4.80929 -0.612076 -0.520417 0.595423
19.5319 2.41338 4.0871 -0.561411 -0.574891 0.595246
19.5285 1.61524 3.283 -0.52807 -0.612328 0.588385
19.518 0.908111 2.55686 -0.521233 -0.593148 0.613438
19.0282 0.464151 1.76988 -0.489698 -0.566061 0.663133
18.13 0.456589 1.11404 -0.479265 -0.568731 0.668415
17.2307 0.471983 0.512335 -0.435499 -0.580282 0.688177
16.3373 0.943155 0.389643 -0.381679 -0.594607 0.707646
15.4088 1.46046 0.388256 -0.295139 -0.611563 0.734087
14.3538 1.87078 0.383488 -0.23224 -0.608661 0.758631
13.3483 2.15789 0.353735 -0.170951 -0.617861 0.767479
12.3732 2.41156 0.365602 -0.14682 -0.600834 0.785775
11.1987 2.597 0.34828 -0.10122 -0.559888 0.822361
10.1801 2.68588 0.341634 -0.00997553 -0.574344 0.818553
9.05964 2.68594 0.350678 0.0249317 -0.608093 0.793475
8.00524 2.60066 0.34729 0.090096 -0.600982 0.794168
6.96563 2.41837 0.348191 0.13336 -0.606551 0.783619
5.91419 2.1626 0.390316 0.22789 -0.631605 0.74104
4.83201 1.75401 0.385784 0.249349 -0.658424 0.70994
3.81057 1.28403 0.392362 0.344068 -0.637071 0.689752
2.8852 0.746914 0.419835 0.421502 -0.645275 0.63709
2.01297 0.442349 0.76816 0.498395 -0.626271 0.599487
1.11053 0.438109 1.55813 0.537371 -0.603374 0.589213
0.511923 0.629349 2.32221 0.559314 -0.60459 0.567132
0.465167 1.29824 3.10196 0.567425 -0.614541 0.548059
0.470974 1.97363 3.85279 0.568662 -0.610505 0.551278
0.451485 2.67446 4.6193 0.599655 -0.568795 0.562772
0.44508 3.40487 5.33962 0.62169 -0.544524 0.563023
0.442661 4.1389 6.05622 0.6241 -0.546724 0.558204
0.424119 4.96882 6.81335 0.666853 -0.460369 0.585543
0.386562 5.78715 7.43584 0.721454 -0.394641 0.569001
0.374177 6.61839 8.02338 0.750299 -0.380767 0.540433
0.345891 7.54947 8.6501 0.782352 -0.305743 0.542616
0.334121 8.47695 9.14619 0.805216 -0.268419 0.528747
0.329516 9.42005 9.60455 0.815368 -0.252618 0.520921
0.304593 10.3452 10.0633 0.846559 -0.209389 0.489382
0.304651 11.3622 10.5134 0.849621 -0.210836 0.483373
0.292371 12.316 10.9876 0.867255 -0.235789 0.43849
0.285838 13.224 11.5139 0.866275 -0.267273 0.422059
0.287487 14.0937 12.0182 0.899777 -0.214616 0.379923
0.265335 15.0362 12.7185 0.907444 -0.261023 0.329183
0.266203 15.826 13.4416 0.905772 -0.315979 0.282247
0.780687 16.9432 12.7059 0.954659 -0.241366 0.174268
1.01484 17.7147 12.0511 0.982719 -0.159101 0.0946095
1.18156 18.5531 11.3989 0.993908 -0.101754 0.042352
1.26958 19.3363 10.7593 0.996751 -0.0766513 0.0247573
1.34176 20.1075 10.0657 0.997613 -0.0486965 0.0489522
1.41645 20.9088 9.46493 0.997254 -0.0505129 0.0541646
1.51022 21.7402 8.89723 0.993824 -0.0693313 0.086645
1.63514 22.5323 8.27211 0.99069 -0.0867467 0.104924
1.78607 23.3222 7.6721 0.986937 -0.089445 0.133999
1.99944 24.16 7.04291 0.956514 -0.0344614 0.289644
2.29305 24.9737 6.44053 0.929825 -0.0988322 0.354484
2.6166 25.7061 5.80874 0.926556 -0.113726 0.358553
3.00922 26.43 5.23317 0.846181 -0.140105 0.514148
3.58875 27.188 4.54021 0.835592 -0.158128 0.5261
4.21915 27.9334 3.93638 0.728524 -0.196197 0.656323
4.97003 28.4546 3.42251 0.576394 -0.215414 0.788268
5.75079 29.0523 3.04958 0.529748 -0.225152 0.817724
6.50961 29.7147 2.78167 0.476999 -0.301079 0.825726
7.45506 29.9443 2.38438 0.290308 -0.297912 0.909379
8.50155 30.0232 2.13748 0.18101 -0.313561 0.932156
9.48957 30.2611 2.05395 0.138424 -0.286607 0.947995
10.5625 30.0971 1.97281 -0.0562051 -0.239781 0.969199
11.6145 30.0302 2.14729 -0.214383 -0.232873 0.948583
12.7755 29.9244 2.42964 -0.311464 -0.218236 0.924858
13.6675 29.6728 2.76971 -0.523907 -0.244392 0.815962
14.4784 29.0089 3.11011 -0.559954 -0.256978 0.787663
15.2625 28.6172 3.60608 -0.645256 -0.211631 0.734069
15.9825 27.9942 4.14848 -0.733611 -0.196765 0.650461
16.5994 27.2048 4.6574 -0.802333 -0.24214 0.545554
17.0777 26.4214 5.23373 -0.865684 -0.185851 0.464812
17.5481 25.6919 5.89436 -0.900911 -0.183608 0.393252
17.9062 24.7604 6.61256 -0.970931 -0.15422 0.183056
18.1313 23.9568 7.27401 -0.976332 -0.132806 0.170703
18.3308 23.131 7.90371 -0.984771 -0.0963315 0.14473
18.4985 22.2546 8.53917 -0.989405 -0.102207 0.103107
18.6201 21.3745 9.20892 -0.995807 -0.0745051 0.0530742
18.7096 20.4751 9.94694 -0.997392 -0.0632777 0.0347117
18.7787 19.5945 10.5963 -0.997634 -0.067171 0.0146197
18.8633 18.6939 11.2115 -0.992794 -0.116583 0.0277092
19.0276 17.9136 11.8232 -0.9727 -0.193673 0.12785
19.3008 17.1347 12.5265 -0.95965 -0.237156 0.151092
19.3088 17.113 12.5429 -0.953032 -0.246174 0.17643
19.3359 16.4023 11.8917 -0.964872 -0.174811 0.196119
19.0781 17.0861 11.1924 -0.973167 -0.123374 0.194229
18.8944 17.81 10.5084 -0.989734 -0.0722566 0.123309
18.773 18.5668 9.70194 -0.995564 -0.0274516 0.0899953
18.6983 19.3945 8.92283 -0.997335 -0.0131641 0.0717641
18.5974 20.1517 8.15846 -0.992157 -0.00904752 0.124668
18.3804 20.9713 7.35214 -0.968389 -0.0133318 0.249087
18.1078 21.6818 6.56401 -0.946685 -0.0125184 0.321916
17.8257 22.4622 5.82676 -0.919229 -0.00471453 0.393694
17.4059 23.233 5.07388 -0.819968 -0.071868 0.56788
16.837 23.846 4.37135 -0.800365 -0.0752284 0.594774
16.3095 24.5073 3.79833 -0.764477 -0.0884657 0.638552
15.6057 25.0384 3.22707 -0.63095 -0.111877 0.767714
14.8526 25.4998 2.70955 -0.585035 -0.116592 0.802584
14.036 25.8084 2.21998 -0.446063 -0.12381 0.886397
13.1432 26.1445 1.87572 -0.375789 -0.139079 0.91621
12.0972 26.278 1.51605 -0.271283 -0.128595 0.95387
11.1271 26.3578 1.34755 -0.115208 -0.117031 0.986423
10.1468 26.4914 1.28059 -0.0647479 -0.13649 0.988523
9.1327 26.2564 1.2632 0.116882 -0.126137 0.985103
8.06907 26.1014 1.41041 0.23136 -0.0968489 0.968036
7.05775 26.0539 1.70364 0.420925 -0.10577 0.900908
6.17477 25.7163 2.06167 0.462682 -0.151555 0.873474
5.34865 25.164 2.4665 0.541208 -0.117862 0.832587
4.5018 24.832 3.03681 0.68739 -0.0477356 0.724718
3.80744 24.3957 3.67607 0.72898 -0.0648489 0.681456
3.22797 23.8031 4.27203 0.818873 -0.104859 0.564315
2.68064 23.1207 5.05867 0.894218 -0.0706483 0.442022
2.29295 22.4621 5.81722 0.922867 -0.0258674 0.38425
1.95286 21.6211 6.59836 0.942179 -0.00667295 0.335042
1.69699 20.808 7.42899 0.975838 0.00592784 0.218416
1.52608 20.0615 8.25809 0.983517 0.00787755 0.180641
1.41533 19.3238 8.9659 0.989067 5.59515e-05 0.147469
1.30192 18.5641 9.76266 0.990756 -0.0252364 0.133286
1.18584 17.7873 10.4583 0.991678 -0.0714228 0.107119
1.01859 17.0165 11.1906 0.982173 -0.132456 0.133383
0.792455 16.3212 11.9412 0.969214 -0.177501 0.170638
0.789004 15.4901 11.3473 0.956264 -0.107473 0.272047
1.03549 16.1824 10.5603 0.977421 -0.0708004 0.199085
1.25954 16.982 9.63954 0.977702 -0.0422291 0.205707
1.46605 17.7163 8.70218 0.979653 0.00840298 0.200524
1.61465 18.3907 7.9068 0.973613 0.0188635 0.227424
1.8094 19.0487 7.08074 0.952365 0.0269554 0.303766
2.07677 19.6747 6.31115 0.91909 0.0125071 0.393848
2.47568 20.3429 5.41765 0.903765 0.00589578 0.427988
2.86849 20.9542 4.69199 0.837826 -0.0243721 0.545394
3.39909 21.5147 4.0073 0.731696 0.00998984 0.681558
4.09218 22.0145 3.29271 0.712626 -0.00278702 0.701538
4.81517 22.4381 2.64621 0.59527 -0.0534299 0.801748
5.66499 22.8281 2.12943 0.460267 -0.0195923 0.887564
6.48891 23.227 1.72468 0.359425 -0.0271775 0.932778
7.50342 23.4355 1.4013 0.255789 -0.0423274 0.965806
8.51384 23.4848 1.14992 0.199187 -0.0316566 0.97945
9.63204 23.4682 1.04401 0.0124662 -0.0558244 0.998363
10.6482 23.4528 1.08864 -0.0902841 -0.0386382 0.995166
11.7436 23.478 1.22782 -0.203658 -0.0198085 0.978842
12.8055 23.3606 1.51 -0.295428 -0.034909 0.954727
13.8714 23.1143 1.90197 -0.399562 0.0180622 0.916528
14.7779 22.7474 2.35686 -0.48263 -0.0206652 0.87558
15.708 22.2374 2.92919 -0.587694 -0.0383172 0.808175
16.3404 21.7504 3.55239 -0.750098 -0.0215838 0.660974
16.946 21.184 4.2602 -0.78693 0.0138188 0.616888
17.4484 20.6477 5.05801 -0.85799 0.0350533 0.512469
17.8817 19.9809 5.87484 -0.895046 -0.00866444 0.44589
18.1806 19.2946 6.71492 -0.945013 0.0511049 0.323015
18.4015 18.6926 7.48352 -0.958139 0.0293392 0.284795
18.5926 18.0234 8.31448 -0.977768 0.0581882 0.201456
18.7055 17.3872 9.16251 -0.985431 0.0243983 0.168314
18.8654 16.7037 9.94949 -0.977124 -0.0420835 0.208463
19.1154 16.007 10.7775 -0.960936 -0.0908392 0.261437
19.2918 15.5829 11.2538 -0.954135 -0.0901353 0.285485
19.1895 14.7389 10.6642 -0.946813 -0.100587 0.305658
18.8726 15.3783 9.76088 -0.963947 -0.0223424 0.265156
18.6542 15.9789 8.89392 -0.975024 -0.0145899 0.221621
18.4421 16.6065 7.95841 -0.960969 0.0394812 0.273826
18.1757 17.2726 6.99473 -0.947167 0.0618886 0.314712
17.8725 17.9347 6.09837 -0.910504 0.087879 0.404054
17.4384 18.4975 5.22456 -0.841513 0.0852558 0.533468
16.971 19.0093 4.46305 -0.809393 0.0766803 0.582239
16.3468 19.4975 3.68067 -0.723126 0.0918795 0.684578
15.5826 19.9401 2.99433 -0.630722 0.0852585 0.771311
14.7619 20.3313 2.33065 -0.534888 0.0144916 0.844799
13.9143 20.6868 1.90608 -0.389724 0.0235167 0.920631
12.96 20.8122 1.53196 -0.294987 0.0559701 0.953861
12.0036 20.9644 1.24859 -0.243992 0.0156918 0.96965
11.001 21.0822 1.08886 -0.0791105 0.033567 0.996301
9.9677 21.2136 1.07094 0.00612088 0.0434971 0.999035
8.91194 21.1225 1.11522 0.0758958 -0.0108714 0.997056
7.89563 21.0249 1.29482 0.246691 0.0324781 0.96855
6.83562 20.8448 1.6025 0.309797 0.0222333 0.950543
5.93818 20.7151 2.01494 0.487424 0.0512125 0.871662
5.12098 20.3298 2.52538 0.541136 0.0548695 0.839143
4.33411 19.8942 3.13113 0.652679 0.00597035 0.757611
3.67685 19.509 3.81451 0.715675 0.0691423 0.695003
3.08976 19.0131 4.51435 0.79275 0.0848963 0.603605
2.65051 18.4671 5.27872 0.879564 0.0449738 0.47365
2.25018 17.9459 6.05968 0.897142 0.0420882 0.439732
1.93985 17.3676 6.93146 0.954085 0.0627326 0.292893
1.72652 16.8153 7.75314 0.962906 0.0357287 0.26746
1.50847 16.2029 8.59086 0.96866 0.00864367 0.248241
1.29173 15.6051 9.45256 0.969345 0.000710365 0.245703
1.05921 15.0272 10.2689 0.958302 -0.0437874 0.282384
0.852066 14.6238 10.7763 0.948988 -0.116385 0.293045
0.950952 13.8041 10.1398 0.935494 -0.139012 0.324849
1.30928 14.3919 9.19877 0.960472 -0.0861237 0.264718
1.57505 14.982 8.35094 0.958998 -0.0100371 0.283234
1.83749 15.478 7.4932 0.94874 0.0297185 0.314657
2.15869 16.0563 6.51285 0.928276 0.0376548 0.36998
2.53522 16.6202 5.63885 0.864277 0.0462043 0.500889
3.09122 17.0872 4.76304 0.808286 0.0629698 0.585413
3.68207 17.5684 3.97513 0.742219 0.0712893 0.666354
4.37968 17.9885 3.27676 0.679238 0.0724217 0.730336
5.31548 18.3012 2.57802 0.514231 0.117552 0.849558
6.14225 18.721 2.06089 0.48289 0.0889543 0.871151
7.07784 19.0084 1.65499 0.311161 0.0894824 0.946135
8.11805 19.1562 1.36233 0.217063 0.111318 0.96979
9.16207 19.0947 1.22186 0.0660057 0.0778029 0.994781
10.2191 19.1097 1.18474 0.0249262 0.0672917 0.997422
11.3296 19.1097 1.26773 -0.186708 0.116344 0.975502
12.3261 19.0256 1.51118 -0.256819 0.0932048 0.961955
13.4043 18.7488 1.84274 -0.294063 0.0992183 0.950622
14.2981 18.4619 2.21092 -0.482548 0.0387487 0.875012
15.1677 18.2361 2.83088 -0.583168 0.0798358 0.808419
15.9248 17.8397 3.45485 -0.656613 0.115048 0.745402
16.6059 17.4311 4.2157 -0.763778 0.087664 0.639498
17.1161 16.9843 4.96488 -0.803622 0.0928901 0.587846
17.6297 16.4577 5.87071 -0.8857 0.0819798 0.456963
17.9966 15.9428 6.78301 -0.933274 0.0777661 0.350645
18.3204 15.327 7.76374 -0.94284 0.0339169 0.331515
18.6249 14.7063 8.76061 -0.967003 -0.0212343 0.253877
18.9355 14.0622 9.68422 -0.946137 -0.0696924 0.316176
19.1232 13.7861 10.1542 -0.935484 -0.106398 0.336972
19.0882 12.8093 9.81836 -0.919745 -0.0607766 0.387782
18.7505 13.3072 8.99815 -0.943472 -0.0418153 0.328804
18.3955 13.81 8.06009 -0.922903 -0.00931009 0.384919
18.0476 14.2935 7.20434 -0.912743 0.0682937 0.402785
17.7091 14.7644 6.35886 -0.87674 0.0775258 0.474675
17.268 15.2127 5.51957 -0.835541 0.0892507 0.54213
16.7034 15.6754 4.68412 -0.774976 0.0935372 0.62503
15.9942 16.0771 3.84798 -0.670209 0.155878 0.725618
15.2794 16.427 3.1687 -0.577357 0.176273 0.797237
14.441 16.786 2.55487 -0.488311 0.144746 0.860582
13.5824 17.0257 2.10719 -0.322754 0.125013 0.938191
12.6255 17.1691 1.78963 -0.277917 0.112275 0.954021
11.6542 17.3188 1.52499 -0.173321 0.136332 0.975384
10.6433 17.3813 1.4021 -0.0335657 0.156062 0.987177
9.61097 17.4002 1.39512 0.0206064 0.113646 0.993308
8.56876 17.2791 1.47149 0.122929 0.136991 0.982915
7.5421 17.2259 1.70851 0.29129 0.124365 0.948516
6.57249 16.9742 2.06255 0.374716 0.0949472 0.922265
5.54438 16.6837 2.63977 0.528248 0.0936383 0.843911
4.72545 16.364 3.20761 0.57824 0.0535057 0.81411
3.98909 16.0209 3.79874 0.689179 0.0861218 0.719455
3.32596 15.648 4.58432 0.80066 0.0464245 0.597318
2.78445 15.2362 5.41065 0.835709 0.0906267 0.541643
2.35649 14.7965 6.30988 0.907766 0.0820369 0.411376
2.02105 14.3128 7.14482 0.920952 0.0347999 0.38812
1.61235 13.7606 8.13666 0.933864 -0.0295728 0.356405
1.29319 13.2537 8.93883 0.947187 -0.0678663 0.313418
0.967095 12.776 9.70996 0.921349 -0.115169 0.371285
1.04083 11.8584 9.25266 0.903501 -0.162901 0.39642
1.50508 12.4187 8.28432 0.922513 -0.0442168 0.383425
1.87687 12.8451 7.44229 0.915253 -0.0160466 0.402559
2.32334 13.3483 6.50331 0.902566 -0.00757707 0.430484
2.78046 13.7708 5.61513 0.871736 0.0377555 0.488518
3.29808 14.1664 4.78461 0.797795 0.0505555 0.600805
4.01076 14.497 4.00533 0.645231 0.111461 0.755813
4.78672 14.8718 3.30851 0.614974 0.113937 0.780272
5.60325 15.1362 2.7485 0.443026 0.0895737 0.892022
6.5712 15.3485 2.3114 0.339564 0.13261 0.931188
7.54641 15.5432 1.94354 0.27932 0.159815 0.946805
8.51793 15.7566 1.69199 0.139554 0.171028 0.975333
9.55459 15.7969 1.59645 0.0079041 0.178143 0.983973
10.6911 15.8172 1.62445 -0.0647775 0.17058 0.983212
11.8608 15.7362 1.80587 -0.228033 0.181352 0.956615
12.8203 15.6338 2.07522 -0.264123 0.182296 0.947105
13.8473 15.4021 2.47912 -0.419966 0.129048 0.898318
14.6667 15.129 2.9849 -0.523841 0.0991454 0.846027
15.4822 14.7858 3.60568 -0.606631 0.112545 0.786977
16.283 14.4315 4.38721 -0.673553 0.125341 0.728434
16.9149 14.0444 5.154 -0.803698 0.0583676 0.592168
17.4324 13.64 6.01345 -0.882108 0.0788473 0.464401
17.8383 13.2181 6.90711 -0.896932 0.0597515 0.438113
18.2441 12.76 7.73378 -0.893066 0.00797815 0.449854
18.6398 12.3029 8.58374 -0.925603 -0.0251364 0.37766
18.9805 11.9013 9.3473 -0.911156 -0.108233 0.397593
18.9077 10.902 8.89919 -0.886486 -0.133536 0.44307
18.4624 11.3453 8.09673 -0.897914 -0.0743912 0.43384
17.9678 11.8334 7.20798 -0.884223 -0.0132112 0.466877
17.5277 12.2017 6.37068 -0.884533 -0.000413041 0.466477
17.0705 12.5428 5.51164 -0.845119 -0.000862306 0.534577
16.4039 12.9959 4.69354 -0.683884 0.061165 0.727022
15.656 13.2833 4.00846 -0.638747 0.104964 0.762223
14.8885 13.5764 3.35594 -0.604817 0.112438 0.788387
13.9847 13.8584 2.79342 -0.41514 0.159564 0.895655
13.0472 14.0962 2.38448 -0.264562 0.128096 0.955823
12.079 14.2436 2.11817 -0.216772 0.131892 0.967271
11.0754 14.324 1.9293 -0.115281 0.135206 0.984088
9.91687 14.3419 1.87405 -0.00541665 0.176788 0.984234
8.82342 14.2894 1.91032 0.035577 0.167108 0.985297
7.7187 14.1736 2.10873 0.269637 0.154697 0.950455
6.76305 13.9916 2.44788 0.336528 0.150793 0.929522
5.67763 13.7398 2.92776 0.416147 0.157197 0.895607
4.72861 13.4329 3.55411 0.555597 0.119206 0.822862
3.98812 13.1397 4.21107 0.651697 0.10566 0.751084
3.26002 12.7945 4.99059 0.720235 0.0650056 0.690678
2.74265 12.429 5.77794 0.855216 0.0228625 0.517768
2.27623 12.0247 6.617 0.88095 0.00794218 0.473142
1.83459 11.5913 7.4161 0.903241 -0.0788588 0.421826
1.38659 11.1637 8.2819 0.900897 -0.0999444 0.422368
1.09098 10.8803 8.81321 0.889142 -0.139718 0.43578
1.14224 9.85393 8.42785 0.868967 -0.144012 0.473451
1.63883 10.2818 7.59884 0.878777 -0.0767544 0.471019
2.13875 10.7282 6.77072 0.847359 -0.0554436 0.528118
2.68354 11.1383 5.93827 0.834613 -0.0227321 0.550368
3.30655 11.5636 5.07479 0.756925 0.0341098 0.652611
3.9921 11.8758 4.38565 0.673092 0.0764777 0.735594
4.76371 12.159 3.68732 0.630791 0.0816825 0.771641
5.6713 12.4859 3.10237 0.442806 0.0746313 0.893506
6.69508 12.6817 2.67438 0.334332 0.121145 0.934637
7.67856 12.8117 2.32853 0.290155 0.157822 0.943876
8.71425 12.9544 2.12395 0.0566182 0.151839 0.986782
9.75022 13 2.10119 -0.0065474 0.15907 0.987246
10.7696 13.0171 2.1346 -0.068295 0.180261 0.981245
11.8946 12.8828 2.27807 -0.133045 0.152333 0.979333
12.9629 12.7639 2.55218 -0.326723 0.136257 0.935246
13.9507 12.52 2.96403 -0.376036 0.0692432 0.924014
14.8092 12.3106 3.44982 -0.596727 0.0536463 0.800649
15.5796 12.0224 4.08669 -0.637391 0.0640997 0.767869
16.3513 11.7293 4.75029 -0.657281 0.0697345 0.750412
16.9638 11.3468 5.45234 -0.797854 0.0943172 0.595427
17.4761 11.0011 6.25326 -0.868551 0.0059042 0.495564
17.9528 10.6226 7.08438 -0.863427 -0.0649298 0.500278
18.4657 10.202 7.88378 -0.855775 -0.118929 0.503493
18.8625 9.8679 8.48586 -0.85728 -0.163967 0.488043
18.7912 8.88041 7.99249 -0.835761 -0.234957 0.496284
18.1784 9.3401 7.16771 -0.834235 -0.155453 0.529042
17.6097 9.74044 6.38174 -0.83251 -0.117747 0.541353
17.0288 10.1371 5.58051 -0.815651 0.013752 0.57838
16.3228 10.537 4.80311 -0.70412 0.0327185 0.709327
15.474 10.8749 4.06449 -0.615337 0.0180393 0.788058
14.6794 11.1509 3.46825 -0.527111 0.0686082 0.847022
13.7611 11.3713 2.97684 -0.376688 0.0530376 0.924821
12.7727 11.5721 2.62434 -0.265449 0.110744 0.957743
11.7272 11.7132 2.40303 -0.118939 0.0998153 0.987872
10.6626 11.7579 2.29809 -0.078272 0.0900515 0.992857
9.57035 11.7934 2.27489 0.0149202 0.117112 0.993007
8.4775 11.7159 2.32904 0.0899462 0.106105 0.990278
7.41854 11.5996 2.54876 0.254698 0.0839211 0.963372
6.46723 11.4376 2.8602 0.332854 0.083461 0.939278
5.55424 11.238 3.28562 0.460495 0.0796889 0.884078
4.72033 10.9625 3.83173 0.598957 0.0254032 0.800378
3.96557 10.6663 4.49146 0.677349 0.0231732 0.735297
3.27387 10.3594 5.16694 0.7024 0.0195143 0.711515
2.6213 9.94356 5.97023 0.814051 -0.030071 0.580014
2.08121 9.54465 6.74533 0.844941 -0.0579499 0.531711
1.54235 9.11274 7.50025 0.849791 -0.180623 0.495207
1.22351 8.86431 7.92971 0.821307 -0.228596 0.522684
1.26929 7.92491 7.46476 0.802899 -0.235032 0.547826
1.86553 8.33339 6.74828 0.809265 -0.197064 0.553404
2.4795 8.76098 6.02981 0.794294 -0.119341 0.595697
3.13281 9.15964 5.32436 0.723641 -0.0246023 0.689737
3.81461 9.49471 4.63858 0.706714 -0.0192647 0.707237
4.52517 9.79415 4.00297 0.613853 -0.0149833 0.789278
5.45355 10.0871 3.41694 0.434046 0.0171473 0.900728
6.45693 10.3119 2.94244 0.402563 0.028589 0.914946
7.41671 10.4807 2.63517 0.239971 0.0876068 0.966819
8.39646 10.5698 2.45184 0.14396 0.0812998 0.986238
9.39202 10.6368 2.37766 0.0140962 0.0696278 0.997473
10.5394 10.6521 2.37345 -0.0290592 0.0852714 0.995934
11.5878 10.5854 2.46381 -0.125756 0.066215 0.989849
12.7607 10.4597 2.70913 -0.23352 0.0820022 0.968888
13.8879 10.2429 3.08392 -0.406669 0.0113572 0.913505
14.8363 9.98409 3.62334 -0.552199 0.0207384 0.833454
15.7313 9.68928 4.26522 -0.627776 -0.0669272 0.775511
16.5849 9.31413 5.02066 -0.707551 -0.0947965 0.700275
17.2954 8.90968 5.74831 -0.766249 -0.151944 0.62432
17.9572 8.46217 6.53946 -0.812955 -0.190875 0.550155
18.6032 8.01853 7.29638 -0.799661 -0.258474 0.541972
18.7641 7.90535 7.48027 -0.800318 -0.258493 0.540992
18.6455 7.05154 6.84867 -0.779576 -0.317424 0.53991
17.9572 7.52366 6.1209 -0.775472 -0.28036 0.565722
17.196 7.9769 5.37404 -0.710585 -0.192558 0.67675
16.4086 8.37076 4.69326 -0.673796 -0.121867 0.728798
15.5869 8.71161 4.03178 -0.576863 -0.141982 0.804407
14.737 8.97257 3.5283 -0.453143 -0.0742564 0.888339
13.7774 9.21337 3.07126 -0.371958 0.0212656 0.928006
12.7971 9.39359 2.77676 -0.228024 0.0128697 0.97357
11.7743 9.51954 2.55688 -0.178161 0.038597 0.983244
10.7437 9.589 2.43928 -0.0303013 0.0139617 0.999443
9.70831 9.60573 2.43497 0.0255771 0.0402568 0.998862
8.69348 9.56143 2.48645 0.081439 0.0415613 0.995811
7.67664 9.4662 2.64298 0.172834 0.0298999 0.984497
6.65324 9.2965 2.8813 0.364243 -0.0422334 0.930346
5.51961 9.04186 3.36283 0.439877 -0.0721413 0.895156
4.63342 8.77766 3.86299 0.577091 -0.116196 0.808371
3.83879 8.45848 4.50859 0.700286 -0.116522 0.704289
3.02536 8.05257 5.26209 0.700748 -0.183324 0.689452
2.26685 7.62835 5.9492 0.743336 -0.213714 0.63386
1.6033 7.17395 6.66698 0.775573 -0.24572 0.58147
1.33444 6.99385 6.9513 0.774871 -0.291582 0.560852
1.42346 6.11595 6.37929 0.712885 -0.335629 0.61575
2.09322 6.55327 5.74141 0.763121 -0.255198 0.593734
2.88085 7.00043 5.05282 0.678665 -0.273751 0.681524
3.65424 7.38004 4.44059 0.673383 -0.208413 0.709309
4.50061 7.74558 3.80569 0.553666 -0.125959 0.823158
5.37045 8.01381 3.31303 0.453993 -0.153284 0.877721
6.318 8.23242 2.93225 0.330478 -0.103269 0.938147
7.35118 8.40509 2.6661 0.215108 -0.0709479 0.97401
8.40047 8.52999 2.48834 0.137984 -0.112831 0.983987
9.57152 8.58548 2.40731 0.00710555 -0.0628833 0.997996
10.7012 8.56624 2.44994 -0.0677996 -0.0272101 0.997328
11.6949 8.52205 2.55103 -0.148784 -0.0319903 0.988352
12.7901 8.38639 2.74851 -0.175941 -0.100587 0.979248
13.7669 8.20621 3.01932 -0.350353 -0.124905 0.928252
14.7673 7.99546 3.43698 -0.427649 -0.112013 0.896978
15.6308 7.70323 3.92032 -0.61544 -0.104623 0.781209
16.4398 7.37353 4.50564 -0.595472 -0.257335 0.761046
17.222 7.03856 5.04358 -0.657424 -0.357582 0.663272
17.9773 6.6058 5.68271 -0.764244 -0.312889 0.563944
18.5697 6.20512 6.23983 -0.737831 -0.386801 0.553164
18.3868 5.50056 5.51146 -0.695885 -0.445667 0.563139
17.6633 5.92694 4.94702 -0.67061 -0.37317 0.641113
16.8719 6.29623 4.43248 -0.573027 -0.326646 0.751626
15.9886 6.63781 3.91323 -0.54893 -0.332622 0.766836
15.0958 6.95125 3.42611 -0.499072 -0.211508 0.840352
14.1077 7.19649 3.04088 -0.392124 -0.144825 0.90844
13.1333 7.38973 2.69566 -0.279062 -0.151268 0.948284
12.1168 7.51943 2.51495 -0.144358 -0.166456 0.975425
11.0137 7.60521 2.39376 -0.0946441 -0.146562 0.984663
9.93652 7.63808 2.32046 -0.0224253 -0.148563 0.988649
8.8421 7.60247 2.33173 0.0787764 -0.142463 0.98666
7.80502 7.50604 2.4481 0.180824 -0.149145 0.972141
6.82774 7.3856 2.66492 0.271313 -0.152986 0.950255
5.85124 7.19926 2.93692 0.343077 -0.200896 0.917572
4.89993 6.94168 3.3568 0.504632 -0.278065 0.817329
4.02853 6.63201 3.85432 0.583866 -0.295331 0.756228
3.15251 6.23798 4.4559 0.650205 -0.320635 0.688786
2.40285 5.83716 5.03671 0.710857 -0.355796 0.606706
1.65585 5.36438 5.6536 0.72196 -0.360296 0.590729
1.50049 5.26448 5.78255 0.725749 -0.368513 0.580936
1.58998 4.52641 5.12167 0.654922 -0.474757 0.587949
2.36413 4.97012 4.56717 0.671633 -0.414367 0.614173
3.24206 5.42023 3.94841 0.626485 -0.339078 0.701813
4.05738 5.78449 3.4581 0.555887 -0.336123 0.76027
4.95546 6.09208 3.00362 0.414793 -0.295025 0.86076
5.95712 6.32763 2.68576 0.268451 -0.273039 0.923788
6.97355 6.4967 2.4601 0.244144 -0.243964 0.938549
7.9754 6.62517 2.27594 0.137357 -0.186402 0.972824
8.98298 6.68344 2.18574 0.0694135 -0.154787 0.985506
10.021 6.71797 2.15615 0.00270104 -0.223463 0.974709
11.1366 6.68985 2.21606 -0.11431 -0.219092 0.968985
12.2003 6.61238 2.34406 -0.143561 -0.226447 0.963386
13.226 6.47638 2.53662 -0.257076 -0.266571 0.928898
14.2803 6.26427 2.86871 -0.375187 -0.302537 0.876188
15.2863 6.02832 3.1893 -0.443542 -0.380437 0.811504
16.2257 5.71409 3.63882 -0.546916 -0.43597 0.714713
17.1927 5.32613 4.16673 -0.572708 -0.459728 0.678716
18.0951 4.90626 4.69683 -0.626089 -0.465559 0.625513
18.4348 4.729 4.91156 -0.634647 -0.512161 0.578718
18.3333 4.01892 4.28395 -0.575845 -0.458005 0.677225
17.5212 4.40054 3.82576 -0.5923 -0.449747 0.668513
16.6272 4.78906 3.33788 -0.549693 -0.432239 0.714847
15.7103 5.10203 2.92826 -0.409866 -0.43177 0.803482
14.7638 5.34127 2.62772 -0.342509 -0.419904 0.840457
13.7285 5.55626 2.34713 -0.311559 -0.421727 0.851515
12.6222 5.71355 2.14293 -0.138045 -0.324085 0.935902
11.6117 5.79849 2.05242 -0.137222 -0.28142 0.949723
10.4803 5.84452 1.95702 -0.036037 -0.273078 0.961317
9.30392 5.82586 1.98177 0.0460195 -0.270911 0.961504
8.30266 5.78384 2.02684 0.0788683 -0.303481 0.949568
7.22496 5.67179 2.15414 0.231667 -0.379695 0.895635
6.22527 5.52046 2.36429 0.254039 -0.338856 0.905892
5.10504 5.28901 2.62951 0.381688 -0.339912 0.85952
4.17357 5.00503 3.0024 0.551277 -0.401197 0.731529
3.27475 4.61269 3.49597 0.555596 -0.404041 0.72668
2.41482 4.21438 3.98928 0.573965 -0.491968 0.654623
1.60321 3.80116 4.46239 0.612738 -0.532774 0.583698
1.67928 3.13862 3.76904 0.603272 -0.546096 0.581242
2.5305 3.53722 3.33477 0.556538 -0.537907 0.633184
3.42017 3.92523 2.90162 0.550941 -0.515859 0.656013
4.30103 4.28023 2.48022 0.432632 -0.498881 0.750965
5.2737 4.53234 2.19722 0.303815 -0.461634 0.833421
6.33403 4.7354 1.97654 0.251365 -0.423887 0.870135
7.47026 4.89809 1.77849 0.162023 -0.368785 0.915285
8.48588 4.97958 1.70382 0.0563796 -0.371566 0.926693
9.53755 5.01675 1.68996 0.0272943 -0.404319 0.914211
10.6265 5.02674 1.67436 -0.0485828 -0.45089 0.891256
11.6688 4.96889 1.75148 -0.11095 -0.424094 0.898796
12.6819 4.88972 1.82063 -0.0998614 -0.402769 0.909838
13.6913 4.76724 1.96353 -0.246776 -0.410194 0.877977
14.7972 4.53705 2.24118 -0.330474 -0.412607 0.848848
15.7627 4.27651 2.54753 -0.421092 -0.39059 0.81861
16.6826 3.97173 2.91205 -0.49143 -0.459027 0.740129
17.54 3.62943 3.3029 -0.547917 -0.500877 0.670007
18.3032 3.28399 3.70495 -0.58375 -0.508855 0.632695
18.3268 2.57154 3.11656 -0.570171 -0.55084 0.609491
17.4131 2.96935 2.69193 -0.494996 -0.547106 0.675022
16.5126 3.28201 2.34932 -0.413876 -0.550345 0.725139
15.5734 3.55286 2.05007 -0.381244 -0.478317 0.791117
14.5885 3.80166 1.78605 -0.2741 -0.474838 0.8363
13.4476 4.01873 1.54815 -0.200616 -0.393857 0.897012
12.4577 4.12965 1.43026 -0.126184 -0.458602 0.879637
11.3231 4.23055 1.32646 -0.100754 -0.466321 0.878859
10.2917 4.26633 1.28015 0.0196025 -0.490598 0.871166
9.12619 4.22578 1.33273 0.0485995 -0.427171 0.902864
8.12281 4.17097 1.38786 0.115626 -0.459735 0.880497
7.04863 4.07959 1.46124 0.134884 -0.474494 0.869863
6.06971 3.9329 1.60197 0.260064 -0.505416 0.822752
5.06187 3.72899 1.79609 0.261652 -0.506147 0.821799
4.01878 3.45718 2.07098 0.482202 -0.477006 0.734811
3.06277 3.06327 2.50231 0.526007 -0.534031 0.661912
2.14573 2.66548 2.90691 0.532214 -0.57358 0.622699
1.71181 2.46745 3.10599 0.550024 -0.579462 0.601413
1.68219 1.79124 2.46109 0.52603 -0.606468 0.596229
2.68737 2.22028 2.05805 0.48587 -0.602647 0.633045
3.65004 2.60068 1.68366 0.481529 -0.549318 0.68292
4.6492 2.90698 1.39483 0.29548 -0.550449 0.780832
4.94664 2.97294 1.34515 0.25916 -0.543931 0.798107
14.0939 3.15075 1.24911 -0.21067 -0.51796 0.829057
15.2632 2.91952 1.45539 -0.290245 -0.559146 0.776604
16.2855 2.6408 1.74323 -0.405766 -0.546345 0.732708
17.3053 2.30179 2.09913 -0.445854 -0.53513 0.71753
18.1664 1.97017 2.43663 -0.511195 -0.570788 0.642558
17.1936 1.63762 1.50443 -0.43583 -0.573975 0.693257
17.1008 1.66934 1.47252 -0.433301 -0.575146 0.693871
19.2771 17.686 13.4184 -0.939394 -0.326104 0.105805
18.9741 18.4944 12.8459 -0.965781 -0.251086 0.0649881
18.7644 19.5021 12.2518 -0.989801 -0.133645 -0.0493234
18.6803 20.3482 11.6948 -0.987717 -0.137477 -0.0742613
18.6167 21.2002 11.1661 -0.981756 -0.160247 -0.102348
18.5224 22.0581 10.6147 -0.970484 -0.192075 -0.145832
18.3734 23.0462 10.137 -0.969525 -0.196606 -0.146173
18.2742 23.9309 9.66093 -0.970921 -0.188964 -0.146988
18.1636 24.8779 9.16686 -0.970717 -0.215873 -0.105393
17.9885 25.7978 8.7054 -0.97804 -0.208283 0.00747963
17.8028 26.7009 8.26582 -0.987074 -0.156821 0.0330551
17.5814 27.6721 7.82786 -0.974646 -0.205047 0.0895617
17.2981 28.6353 7.3699 -0.953121 -0.253394 0.165382
16.9239 29.6764 6.86147 -0.951816 -0.278073 0.129314
16.5315 30.5185 6.47002 -0.919039 -0.352486 0.17641
16.0679 31.3356 6.06997 -0.838652 -0.478021 0.261072
15.5079 32.0799 5.72393 -0.776588 -0.524621 0.348833
14.8457 32.7794 5.3067 -0.764876 -0.518728 0.38195
14.1067 33.4602 5.096 -0.581654 -0.677331 0.450446
13.1807 33.9895 4.95042 -0.419132 -0.751889 0.508912
12.2465 34.2153 4.60823 -0.359933 -0.703519 0.612788
11.2172 34.4482 4.53517 -0.117369 -0.744177 0.657591
10.3195 34.3241 4.31106 0.0375697 -0.737638 0.674151
9.33601 34.2033 4.22534 0.0811949 -0.733299 0.67504
8.37283 34.2751 4.56368 0.27984 -0.763704 0.581761
7.43954 33.682 4.33296 0.396421 -0.662462 0.635606
6.55402 33.324 4.58832 0.531253 -0.605801 0.592263
5.72926 32.7402 4.87621 0.64056 -0.521181 0.563963
4.968 32.1441 5.31724 0.708166 -0.508813 0.489499
4.293 31.4435 5.8228 0.833992 -0.412744 0.366195
3.70114 30.5283 6.36098 0.902889 -0.393549 0.172949
3.2694 29.5821 6.88128 0.947097 -0.290917 0.135552
2.95865 28.7051 7.30398 0.95129 -0.28039 0.128171
2.66245 27.8345 7.74958 0.953721 -0.300691 -0.00151114
2.43142 26.9202 8.19355 0.973619 -0.228175 -0.0011836
2.21826 26.0092 8.65893 0.969416 -0.245379 -0.00458706
2.00753 25.0917 9.05035 0.974221 -0.224321 -0.0239256
1.82241 24.1682 9.51549 0.978054 -0.20233 -0.0497266
1.65965 23.28 9.97499 0.986893 -0.153729 -0.0490789
1.56733 22.365 10.4725 0.98217 -0.124313 -0.141027
1.50103 21.4702 10.9685 0.977761 -0.14505 -0.15147
1.42626 20.5916 11.4898 0.982612 -0.157647 -0.0980832
1.33311 19.6936 11.946 0.984896 -0.152497 -0.0819998
1.21683 18.8877 12.55 0.980378 -0.196285 -0.0182224
0.999517 17.9925 13.141 0.971359 -0.230475 0.0578196
0.809581 17.4636 13.4568 0.942624 -0.289719 0.1659
0.892541 18.158 14.2253 0.939944 -0.312568 0.137138
1.21892 18.9999 13.6978 0.950492 -0.310297 0.0167726
1.46716 19.9578 13.1648 0.974789 -0.221535 -0.0266343
1.64702 20.909 12.6962 0.963481 -0.230495 -0.136297
1.7889 21.8309 12.3172 0.961594 -0.198298 -0.189778
1.93045 22.904 11.908 0.955237 -0.220273 -0.197489
2.12075 23.8908 11.6099 0.923207 -0.303862 -0.235281
2.35293 24.8545 11.3134 0.922092 -0.299906 -0.244546
2.60676 25.8947 10.9883 0.923365 -0.293977 -0.246931
2.84806 26.8381 10.7382 0.900308 -0.302092 -0.313346
3.09305 27.8037 10.4904 0.900934 -0.299806 -0.313741
3.36526 28.7526 10.2614 0.81459 -0.396211 -0.423626
3.72841 29.6901 10.0872 0.835312 -0.414601 -0.361053
4.24871 30.6098 10.0907 0.763754 -0.453941 -0.458932
4.78562 31.4549 10.0264 0.726911 -0.522302 -0.445871
5.40645 32.298 9.93279 0.634453 -0.641719 -0.430891
6.08913 33.0001 9.75775 0.502289 -0.701377 -0.505743
6.96673 33.5944 9.7202 0.435048 -0.732287 -0.523917
7.97419 34.0395 9.69905 0.20601 -0.793411 -0.572765
9.04613 34.4288 9.44305 0.108775 -0.846053 -0.521883
10.0716 34.5444 9.43524 0.0290061 -0.89754 -0.439977
11.0605 34.3709 9.60445 -0.247674 -0.786277 -0.566062
12.0654 34.2217 9.37513 -0.256623 -0.812832 -0.522923
13.0893 33.9341 9.14219 -0.471033 -0.756192 -0.454203
14.0093 33.353 9.08906 -0.509186 -0.768081 -0.388306
14.4018 32.6107 9.77401 -0.604786 -0.643734 -0.468872
15.0474 31.819 9.94258 -0.650726 -0.593055 -0.474175
15.7349 31.0238 9.95383 -0.700057 -0.567972 -0.432813
16.2767 30.1805 10.0029 -0.78788 -0.488991 -0.374342
16.6841 29.2466 10.1963 -0.81602 -0.405648 -0.411779
17.0373 28.274 10.4007 -0.872412 -0.357445 -0.333363
17.3024 27.1789 10.6906 -0.909591 -0.313383 -0.272827
17.5421 26.126 10.9947 -0.90143 -0.329917 -0.280319
17.7465 25.0621 11.2654 -0.953893 -0.210375 -0.214081
17.8794 24.1177 11.5648 -0.945132 -0.209458 -0.250704
18.0353 23.0978 11.8886 -0.94209 -0.237919 -0.236349
18.1974 22.0966 12.2764 -0.935556 -0.256829 -0.242432
18.3732 21.0668 12.6794 -0.945696 -0.248977 -0.208974
18.5518 20.0521 13.1815 -0.943636 -0.282061 -0.173186
18.7998 19.2055 13.692 -0.951688 -0.307004 0.00618833
19.1101 18.3391 14.1891 -0.936497 -0.345952 0.0573642
19.1251 18.3055 14.2089 -0.919013 -0.383408 0.0917259
19.024 18.7309 15.0776 -0.895543 -0.432843 0.103201
18.6211 19.6815 14.5967 -0.924312 -0.380223 -0.0328185
18.2798 20.5626 14.2107 -0.90857 -0.402341 -0.112349
17.9134 21.669 13.8439 -0.913052 -0.32091 -0.2517
17.6871 22.5895 13.5234 -0.87357 -0.352196 -0.335907
17.451 23.5543 13.2815 -0.86622 -0.291195 -0.406039
17.2341 24.6075 12.9357 -0.843134 -0.302019 -0.444871
16.8798 25.6229 12.8226 -0.81581 -0.339753 -0.467998
16.4394 26.6855 12.7323 -0.765617 -0.377091 -0.521184
16.0869 27.6795 12.4927 -0.693025 -0.399326 -0.600213
15.4327 28.7268 12.4703 -0.649441 -0.439012 -0.620882
14.816 29.5731 12.4467 -0.603784 -0.488883 -0.629634
13.9962 30.135 12.5899 -0.427176 -0.571727 -0.700464
13.2593 30.8178 12.4383 -0.375035 -0.581397 -0.722029
12.2612 31.2977 12.462 -0.288061 -0.613251 -0.735489
11.2863 31.5082 12.5462 -0.143291 -0.610934 -0.778606
10.231 31.6942 12.4883 -0.0354479 -0.627551 -0.777768
9.11418 31.7511 12.443 0.0486539 -0.623052 -0.780666
8.14819 31.5047 12.489 0.253195 -0.585357 -0.770227
7.18467 31.0806 12.4411 0.346491 -0.608971 -0.713511
6.29096 30.5473 12.4089 0.394958 -0.545574 -0.73916
5.54071 29.7636 12.4088 0.594389 -0.418587 -0.686649
4.95393 28.9444 12.4224 0.684142 -0.450037 -0.573948
4.38902 28.0663 12.4414 0.736254 -0.432823 -0.520186
4.03053 27.125 12.7064 0.743263 -0.423054 -0.518253
3.49994 26.2026 12.6876 0.770001 -0.403087 -0.49459
3.0837 25.1646 12.8741 0.785565 -0.37593 -0.491492
2.7256 24.1091 13.058 0.834689 -0.34822 -0.426658
2.47519 23.1498 13.3136 0.870084 -0.340092 -0.356778
2.21862 22.0781 13.6078 0.904095 -0.293598 -0.310502
1.94115 21.0602 14.0094 0.90383 -0.36184 -0.228391
1.59554 19.9826 14.3951 0.925185 -0.352968 -0.139448
1.26354 19.1022 14.753 0.900406 -0.431602 -0.0546687
1.02028 18.6059 15.0212 0.887143 -0.461465 0.00529262
1.23223 18.9945 15.9358 0.873716 -0.486169 0.0161142
1.71992 19.8516 15.5969 0.865561 -0.495835 -0.07037
2.15004 20.8172 15.2399 0.871618 -0.437715 -0.220654
2.48675 21.6973 14.8997 0.84583 -0.449547 -0.287193
2.87074 22.686 14.6346 0.83438 -0.392124 -0.387361
3.26081 23.7761 14.3903 0.774777 -0.402781 -0.487327
3.71385 24.6716 14.2781 0.727358 -0.421667 -0.541431
4.25881 25.6373 14.195 0.713056 -0.446887 -0.540225
4.79245 26.48 14.1196 0.630936 -0.469507 -0.617643
5.4622 27.3954 14.0589 0.572324 -0.492773 -0.655454
6.37082 28.2257 14.0938 0.441749 -0.541972 -0.714929
7.19705 28.816 14.1277 0.352378 -0.509964 -0.784708
8.20461 29.2801 14.163 0.161542 -0.55749 -0.814315
9.2153 29.5583 14.1182 0.0669223 -0.56998 -0.818929
10.3617 29.6896 14.0512 -0.0193209 -0.611907 -0.790694
11.3766 29.5338 14.0593 -0.184354 -0.572407 -0.798977
12.512 29.0998 14.062 -0.270615 -0.554554 -0.786916
13.3914 28.6027 14.0667 -0.335778 -0.559194 -0.757994
14.1797 27.8338 14.1585 -0.476803 -0.510182 -0.715802
14.9147 27.0424 14.1042 -0.588766 -0.46386 -0.661958
15.5196 26.241 14.1086 -0.638724 -0.458841 -0.617654
16.0558 25.3838 14.1543 -0.708179 -0.422894 -0.56537
16.548 24.3242 14.2658 -0.755818 -0.351453 -0.552466
16.8649 23.3174 14.52 -0.796462 -0.370693 -0.47774
17.2251 22.3351 14.7972 -0.83153 -0.416712 -0.367299
17.6529 21.4224 15.0803 -0.814103 -0.507528 -0.282225
18.0786 20.5452 15.3512 -0.854894 -0.480007 -0.196848
18.5613 19.5554 15.741 -0.845238 -0.526836 -0.0895396
18.933 18.9902 16.0136 -0.824799 -0.5647 0.0286415
18.7782 19.2222 16.9502 -0.758636 -0.650434 0.0375177
18.1679 19.9874 16.6629 -0.834694 -0.54184 -0.0984686
17.6543 20.8411 16.3379 -0.810998 -0.535744 -0.235075
17.1358 21.6797 16.0527 -0.773251 -0.561353 -0.294898
16.6126 22.5645 15.8528 -0.763175 -0.526502 -0.374645
16.1261 23.425 15.6279 -0.733424 -0.499849 -0.460695
15.6366 24.3995 15.3398 -0.626202 -0.484112 -0.611152
15.0611 25.2147 15.2792 -0.579133 -0.471099 -0.665335
14.3244 25.9762 15.3269 -0.515285 -0.506274 -0.691497
13.5316 26.7154 15.2973 -0.372773 -0.522 -0.767174
12.6198 27.2884 15.2919 -0.293045 -0.529526 -0.79607
11.6896 27.674 15.2861 -0.177362 -0.560431 -0.808987
10.5089 27.96 15.2772 -0.0538007 -0.548592 -0.834357
9.44562 27.8989 15.2852 0.0737195 -0.557447 -0.826933
8.41204 27.691 15.2972 0.118707 -0.568482 -0.814087
7.45326 27.3642 15.2888 0.287072 -0.547568 -0.785977
6.57278 26.8168 15.2546 0.389379 -0.518604 -0.761205
5.83402 26.128 15.3227 0.474926 -0.544921 -0.691019
5.11467 25.287 15.4018 0.551515 -0.517234 -0.654447
4.51684 24.4611 15.4727 0.665402 -0.512699 -0.542568
3.93288 23.5712 15.587 0.696858 -0.508636 -0.505646
3.38536 22.5293 15.7749 0.756987 -0.491998 -0.43001
2.88187 21.622 15.9864 0.775449 -0.521014 -0.356683
2.42259 20.7722 16.3092 0.80585 -0.549876 -0.21964
1.86338 19.9462 16.5768 0.81542 -0.572318 -0.0868452
1.34998 19.1871 16.8604 0.814823 -0.579308 0.0215603
1.96286 19.8243 17.6536 0.719596 -0.683595 -0.121982
2.68838 20.6926 17.3332 0.717973 -0.649539 -0.250226
3.28416 21.5361 17.0463 0.751215 -0.587434 -0.300994
3.89753 22.3916 16.8754 0.717542 -0.599343 -0.354855
4.50865 23.2441 16.6635 0.613768 -0.587232 -0.527682
5.08954 24.0555 16.4536 0.524612 -0.559941 -0.641287
5.88284 24.7881 16.3975 0.451357 -0.589804 -0.669633
6.75624 25.5829 16.252 0.404086 -0.592372 -0.697001
7.61884 26.1235 16.2435 0.322802 -0.596255 -0.735037
8.70856 26.5263 16.1806 0.119179 -0.598172 -0.792456
9.71448 26.6977 16.1729 0.0831284 -0.591829 -0.801766
10.7548 26.6617 16.1952 -0.0871941 -0.570702 -0.816515
11.8764 26.2945 16.2509 -0.190548 -0.573652 -0.796628
12.7959 25.9076 16.2139 -0.343291 -0.552693 -0.759396
13.6302 25.273 16.268 -0.396116 -0.588847 -0.704522
14.4744 24.5919 16.2962 -0.544524 -0.581235 -0.604698
15.1305 23.742 16.4927 -0.585839 -0.590551 -0.555015
15.7345 22.9655 16.7292 -0.618546 -0.615937 -0.487876
16.3971 22.0837 16.9715 -0.698022 -0.600114 -0.390678
17.0543 21.227 17.2262 -0.725858 -0.633316 -0.268404
17.6741 20.4264 17.5123 -0.723667 -0.673186 -0.152076
18.1018 19.9165 17.7133 -0.719828 -0.687974 -0.0924058
18.1193 19.8975 17.7214 -0.711597 -0.696455 -0.0926272
