0.118608 21.1235 9.00488 0.995355 -0.0505835 0.0733573
0.141855 21.6965 9.92762 0.995325 -0.092379 -0.0270004
0.202713 21.8044 10.9344 0.990148 -0.125964 -0.0611205
0.262649 21.6283 11.9128 0.979081 -0.17363 -0.104479
0.322779 21.3647 12.8798 0.972152 -0.207325 -0.109183
0.432881 21.206 13.8681 0.933731 -0.316135 -0.166722
0.608478 21.1041 14.8654 0.87514 -0.442353 -0.196097
0.770087 20.9002 16.0071 0.809864 -0.536769 -0.23568
1.00995 20.8234 17.1293 0.772569 -0.604974 -0.192725
1.33157 20.9558 17.8992 0.75841 -0.61323 -0.220823
1.89169 21.7628 17.607 0.728994 -0.609872 -0.310844
2.42532 22.5977 17.319 0.729585 -0.555072 -0.399501
2.93172 23.4964 16.9446 0.671459 -0.58775 -0.450445
3.41812 24.3346 16.637 0.648162 -0.529265 -0.547508
3.79829 25.2217 16.2628 0.65091 -0.510667 -0.561725
4.17765 26.2249 15.8297 0.642853 -0.472241 -0.60308
4.5539 27.1559 15.4991 0.630916 -0.482706 -0.607373
4.89434 28.0978 15.0888 0.573751 -0.506467 -0.643616
5.26914 28.9882 14.6567 0.489048 -0.570856 -0.659232
5.6684 29.9264 14.2033 0.470842 -0.476911 -0.742127
6.18145 30.8528 13.8767 0.411687 -0.559449 -0.719396
6.87621 31.6257 13.6491 0.298164 -0.586026 -0.753313
7.66573 32.2798 13.4089 0.222727 -0.603519 -0.764371
8.53758 32.7342 13.2125 0.131099 -0.65129 -0.747419
9.56388 32.9049 13.1755 0.0599843 -0.636045 -0.769317
10.6445 32.7855 13.2561 -0.0658746 -0.614782 -0.785386
11.6526 32.5228 13.3536 -0.151846 -0.631072 -0.760054
12.6372 32.1412 13.3999 -0.257708 -0.606571 -0.752103
13.3547 31.4557 13.6611 -0.30512 -0.564866 -0.7667
13.88 30.6449 14.0294 -0.352692 -0.575321 -0.737888
14.4075 29.79 14.4207 -0.381865 -0.525959 -0.759079
14.7979 28.9284 14.7942 -0.501338 -0.475514 -0.722659
15.124 28.0154 15.1728 -0.53415 -0.487857 -0.69042
15.4982 27.0067 15.5885 -0.562261 -0.479428 -0.673804
15.8563 26.1061 15.9212 -0.570906 -0.468426 -0.674273
16.2809 25.1056 16.3067 -0.592614 -0.510384 -0.622447
16.7208 24.171 16.7417 -0.626723 -0.593767 -0.503945
17.284 23.2602 17.0722 -0.695068 -0.578944 -0.426267
17.8831 22.3285 17.355 -0.720722 -0.599571 -0.347957
18.4937 21.4821 17.6971 -0.737281 -0.625617 -0.254991
19.0176 20.9429 17.4812 -0.772312 -0.598141 -0.213919
19.146 21.1338 16.3238 -0.83331 -0.534734 -0.140191
19.2473 21.3782 15.2061 -0.879494 -0.429724 -0.203958
19.3702 21.6289 14.0448 -0.936752 -0.301433 -0.177859
19.5537 21.8338 12.9624 -0.942698 -0.243403 -0.228201
19.6823 22.0965 11.9986 -0.953231 -0.24427 -0.177999
19.7172 22.576 11.0835 -0.965872 -0.213686 -0.146221
19.8061 22.8132 10.0523 -0.980625 -0.175853 -0.0863181
19.8343 22.4095 9.03932 -0.993195 -0.0773454 0.0868513
19.8143 21.7499 8.25499 -0.99129 -0.0886041 0.0974318
19.7814 20.9704 7.51923 -0.985514 -0.0819556 0.148474
19.6828 19.9789 7.02281 -0.96361 0.00238135 0.267296
19.64 18.8967 6.9711 -0.956824 0.0504436 0.286256
19.6256 17.8491 7.11226 -0.960847 0.0449166 0.273253
19.5992 16.8014 7.14443 -0.961528 0.0202824 0.27376
19.5624 15.698 7.13856 -0.949849 0.0439915 0.308823
19.4611 14.5521 7.00973 -0.933511 0.0253505 0.357653
19.4229 13.4339 6.96742 -0.914379 0.00738731 0.404583
19.3128 12.2427 6.78701 -0.897888 0.00556796 0.440188
19.2196 11.2489 6.56876 -0.876812 -0.0456753 0.478658
19.2034 10.2048 6.36248 -0.862647 -0.128216 0.489287
19.1911 9.21422 6.05509 -0.857988 -0.153238 0.490281
19.0446 8.24244 5.56361 -0.812565 -0.17168 0.555749
18.9477 7.38361 5.05717 -0.785262 -0.269609 0.557382
18.8823 6.49586 4.47129 -0.747502 -0.338054 0.571805
18.8108 5.68787 3.86912 -0.688464 -0.368879 0.624452
18.7018 4.79858 3.19546 -0.610887 -0.444724 0.65501
18.7062 3.91333 2.56235 -0.580575 -0.492607 0.648124
18.6441 3.10499 1.86791 -0.535547 -0.536051 0.652563
18.4275 2.45932 1.16974 -0.501959 -0.555466 0.662944
17.6049 3.11397 1.1178 -0.466384 -0.522029 0.713951
16.7916 3.74736 1.07012 -0.428442 -0.510917 0.745209
15.8992 4.29878 0.952373 -0.382032 -0.464884 0.798204
14.9844 4.82435 0.836253 -0.305739 -0.409676 0.85947
13.9451 5.28952 0.712256 -0.220869 -0.346721 0.911593
12.9848 5.71338 0.665351 -0.164074 -0.294449 0.9409
12.0062 5.97794 0.596845 -0.111097 -0.23588 0.965411
10.9864 6.11659 0.564843 -0.0204446 -0.219377 0.975291
9.91645 6.14326 0.563636 0.0238218 -0.26296 0.964513
8.91382 5.98727 0.568719 0.046113 -0.281956 0.958318
7.85178 5.83935 0.606429 0.114455 -0.3213 0.939549
6.84751 5.72948 0.719666 0.207297 -0.324306 0.922959
5.83575 5.44514 0.858855 0.239136 -0.31681 0.917745
4.85093 4.90542 0.903688 0.277668 -0.405288 0.871001
3.9543 4.37117 1.05719 0.463603 -0.446739 0.763928
3.04323 3.64588 1.15932 0.484333 -0.542967 0.686009
2.17086 2.9521 1.22475 0.506491 -0.590966 0.627867
1.41928 2.5846 1.5118 0.529134 -0.597046 0.602446
1.29761 3.38994 2.34973 0.567735 -0.548439 0.613809
1.26111 4.20914 3.09563 0.570363 -0.498108 0.653127
1.18514 5.01009 3.74755 0.692331 -0.388716 0.606801
1.1067 5.87274 4.36248 0.742789 -0.330618 0.582199
1.06863 6.75222 4.87394 0.777989 -0.267135 0.568658
0.998899 7.69243 5.36306 0.794536 -0.213705 0.568368
0.921835 8.61502 5.78689 0.820405 -0.164248 0.547684
0.846512 9.67389 6.17418 0.851689 -0.080646 0.517805
0.719582 10.7513 6.52109 0.871681 -0.0455929 0.487947
0.658869 11.7526 6.76603 0.90205 -0.0435276 0.429432
0.586356 12.7649 7.0115 0.92241 -0.0156399 0.385894
0.494013 13.9047 7.3266 0.935986 -0.0353956 0.350204
0.452195 14.8937 7.5118 0.955976 0.00352794 0.293424
0.415644 15.9822 7.57509 0.958309 0.018159 0.285158
0.382125 17.0035 7.60172 0.957964 0.0297536 0.28534
0.301902 18.081 7.84233 0.97876 0.0164747 0.204347
0.244317 19.2693 7.98072 0.980851 0.0110479 0.194446
0.18531 20.2672 8.31918 0.9876 0.00347993 0.156649
0.120464 21.0975 8.97905 0.993736 -0.0366626 0.105537
0.0491668 20.3503 9.63783 0.997275 -0.0524077 0.0501436
0.0717262 19.4944 9.00469 0.993343 -0.0229153 0.112403
0.0957327 18.4449 8.95953 0.987116 0.0202672 0.158563
0.128744 17.4388 8.6781 0.983472 -0.0276787 0.178935
0.139607 16.4232 8.55153 0.970568 0.00118084 0.240825
0.154215 15.3814 8.54842 0.965164 0.0153998 0.2611
0.167334 14.3733 8.4629 0.957675 -0.0590975 0.281719
0.177982 13.3872 8.1912 0.952337 -0.0736917 0.296014
0.228134 12.4389 7.86877 0.929836 -0.0612812 0.362604
0.249547 11.2991 7.5961 0.911077 -0.0885539 0.402612
0.280139 10.1232 7.24566 0.883367 -0.119724 0.453132
0.33718 9.15718 6.86211 0.822931 -0.181122 0.538497
0.344355 8.11904 6.47769 0.809805 -0.21484 0.545949
0.3944 7.14744 5.96415 0.761001 -0.286213 0.582161
0.409641 6.18691 5.43279 0.731273 -0.340728 0.590885
0.414861 5.32476 4.88054 0.716805 -0.379396 0.58502
0.443928 4.53175 4.22453 0.648759 -0.482137 0.588755
0.469499 3.77342 3.52714 0.607154 -0.53968 0.583185
0.476421 3.03166 2.8082 0.588798 -0.569238 0.573834
0.512933 2.25744 1.9813 0.545577 -0.602272 0.582514
0.492307 1.5452 1.24156 0.532944 -0.614691 0.581423
0.647244 0.953557 0.495436 0.537949 -0.602931 0.58914
1.44557 1.6211 0.472044 0.504493 -0.623913 0.596797
2.35335 2.331 0.476717 0.478911 -0.624009 0.617445
3.22086 2.93215 0.440177 0.440342 -0.595037 0.672332
4.0848 3.57155 0.424966 0.397926 -0.57947 0.711245
5.08626 4.08803 0.354655 0.281815 -0.506772 0.814716
6.01889 4.60283 0.347093 0.237716 -0.549281 0.799195
7.14449 4.83055 0.286692 0.116454 -0.448386 0.886222
8.17176 4.94559 0.232289 0.0812367 -0.386509 0.918701
9.18996 5.08414 0.23757 0.0274229 -0.401994 0.914912
10.2886 5.2005 0.258322 0.028023 -0.388707 0.920935
11.3477 5.12831 0.256087 -0.0538332 -0.412356 0.909431
12.3405 4.94311 0.265695 -0.131037 -0.414003 0.899569
13.4641 4.50127 0.273862 -0.186754 -0.412576 0.891566
14.5522 4.08322 0.328158 -0.247396 -0.450737 0.857506
15.4751 3.63112 0.34898 -0.255917 -0.52301 0.812999
16.4866 3.06272 0.407151 -0.384264 -0.55411 0.738447
17.3221 2.42824 0.423053 -0.426542 -0.557698 0.711956
18.1476 1.80749 0.427519 -0.462925 -0.575558 0.674113
18.9528 1.13837 0.42216 -0.491695 -0.567812 0.660171
19.4751 1.10751 0.784905 -0.492667 -0.571946 0.655857
19.4604 1.96995 1.54268 -0.505972 -0.583081 0.635617
19.4978 2.71049 2.2519 -0.539693 -0.57577 0.614183
19.5199 3.59369 3.04594 -0.576361 -0.50835 0.639816
19.5109 4.44467 3.68491 -0.587353 -0.48281 0.649546
19.5609 5.22836 4.34577 -0.66782 -0.480344 0.568255
19.5753 6.01386 5.01563 -0.716514 -0.427496 0.551175
19.588 6.88133 5.66548 -0.744513 -0.351557 0.567468
19.6402 7.83555 6.28957 -0.807434 -0.260979 0.529093
19.6946 8.74675 6.7879 -0.856549 -0.186117 0.481174
19.7023 9.7838 7.1601 -0.865816 -0.137966 0.480966
19.6891 10.8305 7.36148 -0.867673 -0.0924469 0.488464
19.7498 12.006 7.66652 -0.895339 -0.0473061 0.442867
19.8003 12.993 7.87258 -0.935711 -0.0234044 0.351991
19.81 14.1596 7.93502 -0.93901 -0.0184091 0.343314
19.8309 15.1887 8.04989 -0.953072 -0.0242248 0.301774
19.8635 16.1851 8.16417 -0.969679 0.0154137 0.243894
19.8639 17.3376 8.11271 -0.970436 0.021903 0.240203
19.89 18.4286 8.05123 -0.978561 0.0301242 0.203742
19.9048 19.4468 7.89322 -0.977901 0.0413084 0.20187
19.9305 20.3972 8.32852 -0.991874 -0.0704859 0.105916
19.9426 21.2432 9.17484 -0.993794 -0.0762694 0.0809704
19.9254 21.8689 10.0904 -0.9877 -0.154255 0.00303186
19.9284 21.514 11.0665 -0.985495 -0.143772 -0.0899414
19.9155 20.9982 11.9922 -0.979892 -0.166535 -0.109553
19.8171 20.8719 12.9857 -0.959766 -0.2654 -0.0917167
19.7469 20.6759 14.0483 -0.90464 -0.414848 -0.0976118
19.7002 20.5079 15.0847 -0.872033 -0.472723 -0.126133
19.6799 20.2973 16.2089 -0.848896 -0.521067 -0.0880441
19.6471 20.1918 17.231 -0.791612 -0.599226 -0.118757
19.5889 20.1099 18.2504 -0.714908 -0.696193 -0.0649758
19.4126 20.1776 19.241 -0.687183 -0.724171 -0.0579259
18.6685 20.9305 18.9425 -0.716535 -0.686294 -0.124813
17.9855 21.7215 18.5556 -0.715753 -0.664675 -0.214254
17.2881 22.5425 18.1803 -0.651077 -0.684049 -0.328383
16.6427 23.3428 17.8687 -0.57901 -0.672047 -0.458117
16.0686 24.1412 17.507 -0.576004 -0.615625 -0.537796
15.61 24.9904 17.0794 -0.595515 -0.567135 -0.568964
15.1561 25.9408 16.6489 -0.571882 -0.528961 -0.626055
14.7455 26.8297 16.2792 -0.488529 -0.506608 -0.710414
14.3487 27.8102 15.8228 -0.40774 -0.526137 -0.746276
13.9713 28.7107 15.3956 -0.38153 -0.516644 -0.766484
13.6125 29.547 14.9681 -0.340252 -0.552258 -0.761077
13.0369 30.4328 14.5471 -0.317403 -0.573704 -0.755047
12.4796 31.2747 14.1355 -0.290051 -0.580425 -0.760906
11.4685 31.7528 13.9812 -0.106189 -0.610645 -0.78468
10.4634 32.0003 13.8778 -0.0410357 -0.60002 -0.798932
9.48204 32.1631 13.7763 0.0263478 -0.609242 -0.792503
8.42955 31.8419 13.9176 0.146217 -0.596062 -0.789438
7.65656 31.2434 14.2042 0.217095 -0.597857 -0.771522
6.90818 30.5532 14.4823 0.376502 -0.550134 -0.745385
6.41977 29.6894 14.8333 0.447672 -0.515517 -0.730384
6.05428 28.8444 15.2978 0.424934 -0.55893 -0.712059
5.64308 27.9459 15.7396 0.47106 -0.530741 -0.704568
5.3214 27.0269 16.1889 0.496958 -0.494088 -0.713379
4.90031 26.1616 16.5508 0.514136 -0.574874 -0.636541
4.51446 25.265 16.9963 0.568345 -0.553732 -0.608576
4.10141 24.3609 17.4069 0.604151 -0.577535 -0.549048
3.45809 23.42 17.7994 0.620766 -0.63479 -0.460095
2.9389 22.624 18.1867 0.661522 -0.645156 -0.380955
2.27878 21.7927 18.5297 0.68226 -0.68094 -0.266161
1.66934 21.0509 18.8867 0.686134 -0.703429 -0.183362
0.86605 20.2223 19.243 0.673705 -0.734941 -0.0773521
0.436992 19.8994 18.6294 0.680376 -0.727975 -0.0844991
0.422615 20.0302 17.5641 0.724161 -0.678967 -0.116785
0.315902 20.0258 16.565 0.827581 -0.559879 -0.0405485
0.232378 20.0798 15.5135 0.914525 -0.390037 -0.107309
0.185342 20.2372 14.4485 0.941039 -0.329967 -0.0700101
0.13781 20.2494 13.3948 0.974347 -0.216431 -0.0616832
0.0999266 20.5548 12.206 0.984726 -0.155378 -0.0760758
0.078303 20.772 11.1958 0.989281 -0.13618 -0.0526985
0.0573003 20.7578 10.1885 0.99384 -0.110769 0.00337159
0.0488365 20.5103 9.78866 0.997653 -0.05649 0.0330277
6.10039 21.2956 0.480157 0.410688 0.00136671 0.911426
6.00362 22.4086 0.519828 0.441178 0.00321728 0.897414
5.99458 23.4966 0.548638 0.363257 -0.0211789 0.931441
6.08785 24.5461 0.558451 0.397956 -0.031408 0.916621
6.42915 25.5832 0.482971 0.431783 -0.0872359 0.897749
6.8948 26.5568 0.432663 0.361462 -0.141103 0.921648
7.48277 27.4564 0.38643 0.235256 -0.145602 0.960966
8.21248 28.3365 0.371659 0.178337 -0.157604 0.971136
9.15357 28.9393 0.338724 0.101298 -0.209095 0.972635
10.155 28.9359 0.318446 -0.0782354 -0.197438 0.977123
11.0681 28.504 0.321958 -0.114471 -0.192309 0.974604
11.9416 27.8607 0.323934 -0.18029 -0.152278 0.970722
12.7303 26.9663 0.416134 -0.285357 -0.102882 0.952882
13.1791 25.9468 0.456395 -0.302923 -0.111116 0.946515
13.5046 24.9361 0.474536 -0.336982 -0.0990616 0.936285
13.6956 23.904 0.46517 -0.358499 -0.0499712 0.932148
13.8717 22.7943 0.481841 -0.388108 -0.0421738 0.920585
13.9386 21.6347 0.494103 -0.372201 0.00979468 0.928097
13.817 20.4953 0.485865 -0.366069 0.057246 0.928825
13.5703 19.5242 0.437741 -0.301082 0.0663564 0.951287
13.2054 18.5584 0.410505 -0.253426 0.103558 0.961796
12.7344 17.5981 0.389999 -0.242537 0.0958076 0.9654
12.0003 16.8881 0.291912 -0.182192 0.11013 0.976637
10.9243 16.4787 0.211547 -0.0781999 0.123743 0.989228
9.93152 16.2592 0.201816 -0.0138755 0.135734 0.990648
8.76442 16.3206 0.23345 0.0675647 0.147582 0.986518
7.92533 16.8511 0.27052 0.156062 0.107922 0.981819
7.20694 17.8138 0.328026 0.258313 0.0795837 0.962778
6.73361 18.7253 0.365983 0.279531 0.0921746 0.955689
6.30894 19.8014 0.429136 0.340926 0.0433202 0.939091
6.14214 20.8335 0.466912 0.369492 0.0387801 0.928424
6.10069 21.2911 0.479918 0.402203 -0.0220654 0.915285
7.06811 21.3839 0.146429 0.268833 0.0384166 0.96242
6.95583 22.4554 0.165777 0.317312 -0.00600409 0.948287
6.94605 23.5029 0.189352 0.318091 -0.0213109 0.947821
7.05615 24.539 0.177356 0.313777 -0.0323597 0.94881
7.48167 25.6922 0.136559 0.20426 -0.110399 0.97265
8.11715 26.6808 0.128229 0.181286 -0.127081 0.975185
8.85935 27.6385 0.132888 0.176297 -0.147747 0.973182
9.79726 28.0597 0.119139 -0.00932318 -0.226531 0.973155
10.6788 27.5961 0.117243 -0.114882 -0.152247 0.981643
11.5655 26.9072 0.130773 -0.136415 -0.126905 0.98249
12.1956 25.8933 0.159574 -0.259283 -0.092181 0.961392
12.5153 24.9289 0.168616 -0.27488 -0.0806012 0.95809
12.7264 23.9519 0.146823 -0.270314 -0.0603548 0.960763
12.8473 22.9496 0.13162 -0.264654 -0.0147794 0.96423
12.9807 21.7775 0.166678 -0.29082 0.0204491 0.956557
12.8809 20.6763 0.167293 -0.275547 0.0506733 0.959947
12.6044 19.6774 0.153317 -0.248257 0.0641547 0.966567
12.2356 18.7153 0.150091 -0.237106 0.0932711 0.966996
11.6114 17.7612 0.119217 -0.15382 0.0859184 0.984356
10.5542 17.4133 0.0696131 -0.039043 0.106955 0.993451
9.50259 17.2011 0.0794006 0.00591084 0.135492 0.990761
8.56218 17.5818 0.0981046 0.1211 0.121646 0.985158
7.97543 18.4032 0.101309 0.152898 0.0960332 0.983528
7.51353 19.3468 0.120172 0.186737 0.0614712 0.980485
7.16753 20.2922 0.144038 0.236482 0.0550674 0.970069
7.08272 21.2532 0.147567 0.268833 0.0384167 0.96242
5.58467 20.3201 0.709418 0.415959 -0.00175795 0.909382
4.65863 20.2887 1.24441 0.551919 0.0242077 0.833547
3.86858 20.0562 1.8125 0.612982 0.0566271 0.788065
3.08393 19.7755 2.51703 0.69932 0.0597741 0.712305
2.3827 19.4685 3.2812 0.743889 0.0469376 0.666653
1.77354 19.0639 4.08854 0.840202 0.0824282 0.535972
1.32401 18.7043 4.92988 0.897086 0.0522279 0.438758
0.920914 18.325 5.7962 0.918895 0.032857 0.393131
0.595838 17.8967 6.77776 0.954156 0.0504469 0.295028
0.477838 17.751 7.18805 0.95492 0.0442353 0.293548
0.549766 16.7675 7.07775 0.952066 0.0301411 0.304406
0.867056 17.0406 6.07391 0.936332 0.0417935 0.34862
1.3019 17.3514 5.08204 0.885342 0.0177811 0.4646
1.80695 17.6494 4.18096 0.834447 0.0354646 0.549946
2.38804 17.9484 3.42136 0.754949 0.070768 0.651954
3.10839 18.2452 2.62687 0.705741 0.0448024 0.707052
3.9019 18.4527 1.90887 0.588119 0.0969425 0.802943
4.7937 18.613 1.28684 0.52573 0.108957 0.843645
5.76229 18.6535 0.743279 0.387476 0.0996083 0.916483
6.2487 18.6248 0.543532 0.376613 0.101194 0.920827
6.92753 17.1838 0.473709 0.303253 0.11614 0.945806
5.95698 17.2184 0.834241 0.388888 0.105651 0.915207
5.03445 17.1616 1.3251 0.497698 0.0909951 0.862564
4.14679 17.0604 1.89817 0.548115 0.106532 0.82959
3.23105 16.8359 2.61101 0.676895 0.0326288 0.735356
2.55156 16.6159 3.32359 0.72403 0.0538457 0.687663
1.91378 16.3826 4.14804 0.833335 0.049022 0.550591
1.38888 16.0902 5.04907 0.870847 0.0723711 0.486198
0.961297 15.8252 5.9728 0.924621 0.0527295 0.377222
0.629714 15.6064 6.92368 0.94877 0.0167919 0.31552
0.588328 15.5818 7.04943 0.94877 0.0167918 0.31552
0.668905 14.4124 6.86958 0.937072 -0.0102329 0.348987
1.04727 14.6608 5.91349 0.903915 0.0582366 0.423728
1.47487 14.8918 5.03062 0.864041 0.0563808 0.500254
1.97606 15.1179 4.19175 0.833932 0.0789206 0.546195
2.6144 15.3455 3.33361 0.760098 0.0316419 0.649038
3.39495 15.545 2.54899 0.620321 0.028572 0.783827
4.24284 15.7323 1.9366 0.547842 0.0465785 0.835284
5.29231 15.8747 1.30478 0.433881 0.0861319 0.896844
6.3384 15.9424 0.848345 0.347088 0.147883 0.9261
7.34018 15.93 0.516994 0.245343 0.121196 0.961831
8.33163 15.916 0.344544 0.118058 0.166217 0.978997
8.36679 15.9155 0.340941 0.102723 0.166388 0.980695
10.9272 15.9223 0.295526 -0.0683089 0.159928 0.984762
11.9961 16.0031 0.41472 -0.182834 0.156452 0.970616
13.0113 16.0722 0.645543 -0.271254 0.1431 0.951811
14.0337 16.0814 1.00235 -0.423569 0.118881 0.898029
15.0207 16.0646 1.49753 -0.462725 0.12165 0.878115
15.9739 16.0052 2.08473 -0.576199 0.0815384 0.813232
16.7615 15.8602 2.7639 -0.686568 0.0845706 0.722131
17.6005 15.6947 3.61566 -0.735281 0.0944608 0.671148
18.2466 15.5384 4.46907 -0.825668 0.102811 0.55471
18.7514 15.3797 5.32254 -0.860375 0.0925918 0.501181
19.2366 15.1641 6.33757 -0.931434 0.0789069 0.355253
19.3194 15.1236 6.56477 -0.930507 0.0582468 0.361614
19.1374 13.9577 6.30763 -0.905842 0.0292839 0.422602
18.6319 14.1954 5.31814 -0.857666 0.0776788 0.508306
18.1102 14.3142 4.43438 -0.844431 0.0644614 0.531771
17.479 14.4744 3.60274 -0.745921 0.0873502 0.660281
16.7533 14.6156 2.88542 -0.671284 0.0885777 0.735888
15.983 14.7286 2.25271 -0.569277 0.0971811 0.816382
15.0549 14.8549 1.6648 -0.474402 0.11663 0.872548
14.0311 14.9052 1.1535 -0.358361 0.160456 0.919691
12.9523 14.8895 0.807504 -0.259845 0.127101 0.957249
11.801 14.8694 0.569377 -0.12737 0.149294 0.980555
10.7119 14.8453 0.458756 -0.0817817 0.156673 0.984259
9.6232 14.8173 0.423223 0.0116277 0.155243 0.987808
8.47302 14.809 0.498746 0.0878856 0.140578 0.986161
7.38551 14.7728 0.688806 0.231032 0.147508 0.9617
6.42538 14.7185 0.990865 0.324513 0.117705 0.938529
5.37275 14.6276 1.37948 0.382489 0.0779936 0.920662
4.43491 14.5194 1.86597 0.548404 0.0718397 0.833122
3.55688 14.3715 2.51377 0.612001 0.0740058 0.787387
2.77998 14.177 3.2295 0.751543 0.0492841 0.657841
2.07826 13.9257 4.18095 0.833623 0.0362493 0.551142
1.52268 13.6927 5.0595 0.852407 0.0255479 0.522255
1.03528 13.4549 5.99558 0.902449 0.0186582 0.430394
0.789828 13.3138 6.54492 0.918717 0.0027974 0.394906
0.891887 12.1235 6.31157 0.895777 -0.020337 0.444038
1.33987 12.3933 5.43426 0.879191 0.0320045 0.475393
1.84674 12.6394 4.5653 0.838958 0.00686708 0.544154
2.51495 12.8913 3.66236 0.751245 0.0907368 0.653757
3.18882 13.1073 2.9453 0.669386 0.0949278 0.736825
3.97187 13.2767 2.29542 0.596944 0.0655881 0.799598
4.95492 13.4201 1.66895 0.450774 0.0546688 0.890963
5.92538 13.5647 1.29861 0.289992 0.121777 0.94925
6.89635 13.6288 1.00672 0.278399 0.153111 0.948183
7.95707 13.6649 0.72696 0.170073 0.126515 0.977276
9.10601 13.7264 0.613127 0.0596377 0.157492 0.985718
10.1564 13.7649 0.590479 -0.0321569 0.154451 0.987477
11.23 13.7817 0.659812 -0.0971621 0.151146 0.983725
12.2683 13.784 0.801853 -0.152462 0.138266 0.97859
13.4048 13.7581 1.08478 -0.292899 0.141008 0.945689
14.4511 13.676 1.51437 -0.398451 0.107762 0.910837
15.4138 13.6041 2.02665 -0.515479 0.0955212 0.851562
16.3218 13.4937 2.67221 -0.622929 0.0984995 0.776053
17.0781 13.3382 3.33761 -0.671675 0.0732376 0.737217
17.857 13.1482 4.15427 -0.766467 0.0280564 0.64167
18.4395 12.9722 5.06455 -0.876227 0.0356082 0.480581
18.9045 12.7951 5.95622 -0.889958 0.0426 0.454048
19.1267 12.6885 6.40193 -0.890124 0.0427797 0.453706
18.9199 11.5293 6.01771 -0.889254 -0.0343652 0.456121
18.4387 11.7333 5.1262 -0.871733 0.0093214 0.489893
17.8979 11.9385 4.28727 -0.802938 0.0486487 0.594074
17.2152 12.1241 3.54466 -0.67519 0.0393742 0.736592
16.3842 12.3359 2.82772 -0.626363 0.0501003 0.77792
15.4977 12.4813 2.14716 -0.57089 0.0566837 0.819067
14.5444 12.5756 1.65994 -0.36642 0.0699061 0.92782
13.5684 12.6485 1.27959 -0.313132 0.103407 0.944063
12.5494 12.6906 1.00564 -0.186386 0.0915075 0.978206
11.4906 12.7128 0.842534 -0.119469 0.132586 0.983945
10.3967 12.703 0.760628 -0.0293152 0.123695 0.991887
9.37402 12.6682 0.774791 0.0332173 0.128738 0.991122
8.27618 12.6254 0.845004 0.108819 0.116049 0.987264
7.27406 12.5876 1.03748 0.250659 0.0971389 0.96319
6.16667 12.4766 1.34954 0.282773 0.0959674 0.954374
5.23187 12.3573 1.69292 0.368618 0.106518 0.923458
4.19242 12.1788 2.26388 0.530493 0.0966313 0.842164
3.41847 11.9831 2.90033 0.651644 0.0938156 0.752701
2.66348 11.779 3.62264 0.687521 0.0611145 0.723589
1.97474 11.5044 4.41041 0.813759 -0.0136292 0.581043
1.41462 11.2572 5.31543 0.873114 -0.0185342 0.487164
0.96054 10.9776 6.10745 0.870061 -0.0388217 0.491414
1.15813 9.88709 5.67519 0.866017 -0.0373151 0.49862
1.66801 10.1847 4.83652 0.84917 -0.0321785 0.527138
2.32987 10.4942 3.99583 0.739639 -0.0337837 0.672155
3.04551 10.749 3.31729 0.655801 -0.0363499 0.754058
3.89631 10.982 2.58008 0.632046 0.0220392 0.774618
4.84934 11.2082 1.97661 0.42863 0.0524282 0.901958
5.84227 11.3725 1.54442 0.361248 0.0642017 0.930257
6.81015 11.4694 1.2373 0.251358 0.0627778 0.965856
7.78412 11.5768 1.01868 0.191696 0.0933165 0.977008
8.84878 11.6422 0.907371 0.0594724 0.0870608 0.994426
9.92374 11.6881 0.870742 -0.00829448 0.0866844 0.996201
10.9339 11.6772 0.902369 -0.0616296 0.0890495 0.994119
12.0106 11.6778 1.01156 -0.140296 0.09106 0.985913
13.0811 11.6195 1.23985 -0.271448 0.0865727 0.958552
14.051 11.5576 1.54925 -0.322631 0.0452188 0.945444
15.0075 11.4493 1.91478 -0.417033 0.0363414 0.908164
15.9557 11.2956 2.54244 -0.607595 0.0397504 0.793252
16.721 11.1317 3.16503 -0.65383 0.0322691 0.755953
17.5012 10.8974 3.92005 -0.714187 0.0645478 0.696972
18.2409 10.6178 4.79192 -0.776977 -0.0041631 0.629515
18.7809 10.3689 5.63301 -0.873582 -0.0731335 0.481151
18.9462 10.278 5.91271 -0.878384 -0.106376 0.465968
18.8723 9.14197 5.50883 -0.821843 -0.120584 0.556807
18.2706 9.44207 4.71554 -0.752902 -0.119806 0.647136
17.4503 9.76871 3.88954 -0.699486 -0.076988 0.710487
16.7462 10.0074 3.21011 -0.654329 0.00623142 0.756184
15.854 10.239 2.5141 -0.590459 0.0423539 0.805955
14.9281 10.3912 1.93087 -0.466456 -0.00650189 0.884521
13.8667 10.5179 1.5218 -0.290664 0.000480151 0.956825
12.8482 10.5904 1.23658 -0.249309 0.0170714 0.968274
11.6048 10.6578 1.02757 -0.119232 0.0510353 0.991554
10.4841 10.6592 0.966728 -0.0301029 0.0612056 0.997671
9.48126 10.6441 0.958966 0.0143373 0.0726852 0.997252
8.46506 10.6137 1.01893 0.0917367 0.0671947 0.993514
7.42148 10.5413 1.16886 0.175062 0.0480361 0.983385
6.33481 10.4065 1.43163 0.280097 0.0385592 0.959197
5.24307 10.2448 1.81975 0.352979 -0.0422654 0.934676
4.33552 10.022 2.27265 0.574611 -0.0105149 0.818359
3.51932 9.81652 2.87009 0.627115 -0.00835132 0.778882
2.73494 9.54934 3.55782 0.681468 0.00288356 0.731842
2.02354 9.22646 4.33063 0.772589 -0.0475317 0.633125
1.42685 8.90708 5.09901 0.821473 -0.105161 0.560467
1.23806 8.79506 5.35726 0.831176 -0.114076 0.544181
1.38603 7.8266 4.8599 0.796463 -0.190083 0.574034
2.10465 8.21581 4.04215 0.758952 -0.172662 0.627837
2.87221 8.54221 3.33338 0.664351 -0.138427 0.73449
3.78958 8.83743 2.64784 0.572647 -0.0409497 0.818779
4.62795 9.07024 2.07988 0.51176 0.0188903 0.858921
5.57594 9.27714 1.64732 0.312984 -0.078956 0.946471
6.60796 9.4351 1.35697 0.239117 -0.0216942 0.970748
7.58711 9.54354 1.17257 0.150902 0.00727873 0.988522
8.80367 9.64944 1.02533 0.0758552 0.0156967 0.996995
9.88685 9.68419 0.996252 -0.00343928 0.0220409 0.999751
10.9279 9.68511 1.0249 -0.0460415 0.00545643 0.998925
12.0387 9.65229 1.12246 -0.109324 0.0242971 0.993709
13.0511 9.59232 1.30813 -0.231543 0.00468406 0.972813
14.0813 9.49142 1.57782 -0.296152 -0.0349115 0.954503
15.0634 9.34545 2.01377 -0.505421 -0.0100516 0.862814
15.9018 9.18273 2.55226 -0.52101 -0.0586818 0.851531
16.7922 8.94823 3.12773 -0.614109 -0.12081 0.77992
17.5679 8.66616 3.78865 -0.712335 -0.145951 0.686497
18.3369 8.30053 4.56383 -0.771179 -0.160671 0.61601
18.6458 8.12406 4.93261 -0.801829 -0.160042 0.575723
18.4966 7.19914 4.35734 -0.765577 -0.271201 0.583388
17.7025 7.59578 3.62876 -0.681119 -0.253267 0.686973
16.9256 7.89816 3.02906 -0.615242 -0.209386 0.760023
16.0518 8.14456 2.48137 -0.507369 -0.177994 0.843146
15.0846 8.35991 1.94635 -0.496917 -0.172221 0.850537
14.0142 8.53845 1.48236 -0.337808 -0.106122 0.935213
13.0074 8.63114 1.26607 -0.155787 -0.0924994 0.98345
11.9692 8.69728 1.10576 -0.128433 -0.0497503 0.99047
10.865 8.73177 1.00744 -0.0491165 -0.0531354 0.997379
9.77625 8.73171 0.985621 0.00338368 -0.0270631 0.999628
8.71258 8.68832 1.0136 0.0621534 -0.0596566 0.996282
7.71108 8.6072 1.11638 0.159108 -0.0842994 0.983656
6.67662 8.48034 1.30765 0.216174 -0.0669516 0.974057
5.54148 8.29612 1.57432 0.293338 -0.105294 0.950193
4.62798 8.08545 2.00566 0.509416 -0.132009 0.850335
3.79432 7.85199 2.51168 0.540964 -0.185275 0.820384
2.84251 7.51562 3.12486 0.649269 -0.173448 0.740517
2.03116 7.16372 3.80257 0.717703 -0.209789 0.663996
1.41663 6.81497 4.44142 0.774343 -0.251438 0.580665
1.51612 5.91139 3.87683 0.720028 -0.318226 0.616678
2.31079 6.30619 3.23494 0.647959 -0.274009 0.710682
3.23067 6.71188 2.59313 0.602028 -0.257765 0.755725
4.09304 6.99715 2.08625 0.543292 -0.277628 0.792311
5.12058 7.27293 1.58521 0.410141 -0.250516 0.876941
6.2024 7.47831 1.27313 0.208937 -0.185657 0.960144
7.31126 7.62361 1.07372 0.187931 -0.174271 0.966598
8.35424 7.72818 0.954315 0.0775727 -0.141436 0.986903
9.51726 7.79964 0.914684 0.0300647 -0.147951 0.988538
10.5719 7.81655 0.918523 -0.0111594 -0.174802 0.98454
11.6379 7.79832 0.970806 -0.0831638 -0.177831 0.980541
12.7724 7.72932 1.11227 -0.130884 -0.201972 0.970606
13.7774 7.63814 1.26171 -0.25235 -0.20064 0.946606
14.7757 7.48113 1.61191 -0.432704 -0.160117 0.887203
15.6897 7.27916 2.05978 -0.489046 -0.210676 0.846433
16.5789 7.045 2.53961 -0.513225 -0.303792 0.80269
17.4357 6.76381 3.04369 -0.602548 -0.367469 0.708451
18.2433 6.41139 3.6421 -0.715208 -0.331467 0.615311
18.4141 6.31816 3.79029 -0.71501 -0.331658 0.615437
18.3638 5.44776 3.25439 -0.661693 -0.366825 0.653912
17.5595 5.82092 2.68351 -0.581112 -0.339376 0.739684
16.5477 6.15424 2.16541 -0.479109 -0.34745 0.80606
15.6172 6.38894 1.75748 -0.417455 -0.307065 0.855244
14.5956 6.6018 1.35349 -0.40182 -0.231239 0.886041
13.6436 6.75457 1.04413 -0.24092 -0.20769 0.948063
12.4891 6.86552 0.87908 -0.135474 -0.234457 0.96264
11.3844 6.91741 0.76861 -0.0623121 -0.221739 0.973113
10.3451 6.9288 0.745697 -0.0077605 -0.220662 0.975319
9.21115 6.89165 0.765688 0.0575241 -0.223585 0.972985
8.18379 6.82442 0.819642 0.0710818 -0.186282 0.979922
7.16638 6.71961 0.928404 0.165192 -0.191479 0.967495
6.16627 6.57038 1.0974 0.20817 -0.214363 0.954313
5.15194 6.38625 1.3265 0.270034 -0.224244 0.936374
4.22636 6.14974 1.69895 0.489963 -0.285363 0.823714
3.38392 5.85141 2.15478 0.568746 -0.317352 0.758825
2.49817 5.47453 2.69303 0.626411 -0.341315 0.700795
1.70125 5.08133 3.24222 0.6601 -0.357469 0.66067
1.69864 5.07997 3.24409 0.660099 -0.357469 0.66067
1.68022 4.23039 2.71069 0.617236 -0.518134 0.592078
2.49585 4.60366 2.25169 0.577227 -0.422951 0.698514
3.36877 4.97181 1.78103 0.528989 -0.393949 0.751648
4.3018 5.3113 1.32617 0.411501 -0.342744 0.844508
4.82301 5.44289 1.15664 0.331173 -0.377008 0.864979
2.81635 3.9481 1.552 0.5146 -0.517985 0.683285
1.9281 3.58577 1.96168 0.548563 -0.538834 0.639325
1.78005 3.51999 2.03326 0.55389 -0.537345 0.635976
13.8124 5.8646 0.873838 -0.223747 -0.286507 0.931585
14.8048 5.69683 1.14611 -0.335156 -0.35319 0.873457
15.8496 5.47466 1.49787 -0.40366 -0.391399 0.826962
16.7672 5.20935 1.87925 -0.472302 -0.362411 0.803485
17.7425 4.87273 2.35871 -0.582654 -0.383196 0.716711
18.1928 4.67783 2.62776 -0.611429 -0.438569 0.658644
18.2799 3.84227 2.13566 -0.55291 -0.508905 0.659778
17.3344 4.19149 1.68829 -0.466473 -0.476992 0.744904
16.364 4.49212 1.30307 -0.445814 -0.414008 0.793629
13.1319 17.3402 0.522229 -0.261287 0.112599 0.958671
14.0849 17.407 0.83071 -0.368741 0.0928575 0.924882
14.9946 17.3845 1.27018 -0.457201 0.13801 0.87859
15.8611 17.3219 1.82519 -0.577126 0.087283 0.811978
16.7273 17.1872 2.51908 -0.634804 0.119871 0.763318
17.5287 17.0286 3.34712 -0.72685 0.114736 0.677145
18.1595 16.838 4.13929 -0.792005 0.0480131 0.608624
18.7648 16.6034 5.08342 -0.862099 0.104339 0.495882
19.2109 16.3913 6.02884 -0.939851 0.0552338 0.33709
19.4146 16.3382 6.60003 -0.938536 0.0608573 0.339776
19.4398 17.5164 6.52506 -0.954877 0.0259 0.295869
19.0769 17.7146 5.52505 -0.914614 0.0460762 0.401695
18.5819 17.9737 4.60599 -0.839186 0.07482 0.538674
17.9262 18.2682 3.64722 -0.791557 0.106075 0.601819
17.2035 18.4989 2.78537 -0.714058 0.0500756 0.698293
16.3857 18.6863 2.07382 -0.609554 0.0838392 0.788298
15.4891 18.8566 1.40065 -0.539387 0.0802402 0.838226
14.6009 18.8959 0.878426 -0.433779 0.110881 0.894171
13.8802 18.8528 0.578626 -0.328321 0.109737 0.93817
14.3939 20.7434 0.70164 -0.372587 0.0511209 0.926588
15.3421 20.5546 1.15453 -0.492476 0.0674782 0.867706
16.303 20.2695 1.86405 -0.621129 0.0302987 0.783122
17.1077 20.0432 2.56557 -0.67031 0.0386447 0.741075
17.7916 19.7432 3.28154 -0.789818 0.0479012 0.611468
18.4128 19.4184 4.15648 -0.837447 0.0702696 0.541983
18.9531 19.0506 5.08227 -0.882329 0.0602596 0.466759
19.3567 18.7621 6.07791 -0.930495 0.0646674 0.360552
19.4542 18.6839 6.39618 -0.954677 0.0366461 0.29538
19.5089 19.7137 6.43998 -0.954894 0.029282 0.295499
19.1972 20.1137 5.5154 -0.886544 0.0257683 0.461925
18.7522 20.5894 4.66327 -0.864396 0.0116031 0.502678
18.2862 20.9923 3.87557 -0.837205 -0.00355166 0.546878
17.689 21.3877 3.12799 -0.747157 -0.0233771 0.664236
17.0073 21.792 2.42958 -0.695252 0.00461858 0.718751
16.285 22.174 1.81823 -0.606617 0.00156299 0.794993
15.3905 22.5934 1.2048 -0.552733 -0.0425532 0.832271
14.4377 22.9839 0.730444 -0.387812 -0.0344183 0.921096
14.4179 22.9971 0.722599 -0.387811 -0.0344188 0.921096
13.6169 26.1556 0.647616 -0.388616 -0.128742 0.912361
14.4936 25.5792 0.965312 -0.477466 -0.131119 0.868812
15.3425 24.9268 1.40246 -0.590561 -0.096193 0.801239
16.0673 24.4348 1.87608 -0.599784 -0.111029 0.792421
16.7844 23.8553 2.35607 -0.673807 -0.0849849 0.734004
17.4991 23.3427 3.04571 -0.774076 -0.0510116 0.631034
18.1317 22.782 3.7967 -0.795769 -0.0659102 0.602002
18.6824 22.1838 4.53556 -0.864115 -0.0733195 0.497925
19.1004 21.6262 5.34212 -0.90936 -0.0230925 0.415368
19.4478 21.0463 6.22179 -0.954837 -0.0200766 0.29645
19.5795 20.7856 6.63532 -0.965505 -0.0256047 0.259122
19.7146 21.5828 7.30235 -0.985351 -0.0246075 0.168755
19.4818 22.3289 6.46567 -0.970106 -0.045921 0.238296
19.1821 23.0437 5.62761 -0.928999 -0.0116363 0.3699
18.8493 23.6974 4.92976 -0.874728 -0.0495245 0.482077
18.2646 24.4924 4.19636 -0.802938 -0.104076 0.586905
17.7119 25.1624 3.57383 -0.789108 -0.101733 0.605772
17.1254 25.821 2.96889 -0.732789 -0.0743588 0.676381
16.4548 26.4084 2.45278 -0.638324 -0.134403 0.757944
15.6597 27.0188 1.91963 -0.598186 -0.11555 0.792983
14.8257 27.6571 1.50368 -0.481589 -0.173059 0.859141
13.9189 28.2173 1.14511 -0.445108 -0.156004 0.881783
12.9937 28.8259 0.826288 -0.35441 -0.146925 0.923475
12.0015 29.2162 0.609142 -0.192454 -0.23762 0.952102
10.9248 29.5349 0.51412 -0.11926 -0.204754 0.971521
9.91724 29.6808 0.455424 -0.0414815 -0.180401 0.982718
8.8414 29.4922 0.507414 0.147201 -0.238623 0.959891
7.87693 29.1707 0.596185 0.200204 -0.175527 0.963903
6.88993 28.6804 0.831644 0.411519 -0.199427 0.889315
6.08641 28.1561 1.09422 0.435454 -0.161117 0.885676
5.18961 27.6338 1.47373 0.536859 -0.203665 0.81872
4.36064 26.9363 1.91159 0.599518 -0.149215 0.786329
3.59474 26.316 2.42432 0.634363 -0.159438 0.756415
2.95827 25.6959 2.92656 0.71744 -0.119437 0.686305
2.36724 25.021 3.50951 0.791159 -0.121316 0.599458
1.81538 24.4003 4.15687 0.844452 -0.127991 0.520115
1.33691 23.6834 4.89826 0.909517 -0.0868058 0.406502
0.961609 22.9903 5.64227 0.929198 -0.0848697 0.359706
0.6712 22.2701 6.34578 0.956993 -0.0639488 0.282976
0.434304 21.5437 7.16169 0.979227 -0.02924 0.20065
0.262692 20.8389 7.92576 0.983066 -0.0265126 0.181324
0.260592 20.8302 7.93496 0.980565 -0.0377847 0.19252
0.328366 19.9306 7.52297 0.980941 0.00662424 0.194192
0.533318 20.4674 6.66894 0.972152 -0.00523695 0.234291
0.8699 21.1044 5.7149 0.920788 0.0420713 0.387789
1.2438 21.7725 4.8732 0.907402 -0.00312926 0.420252
1.73182 22.3974 4.06062 0.821847 -0.0396393 0.568327
2.34277 23.0103 3.29186 0.760057 0.00839374 0.649802
2.98127 23.4831 2.63417 0.723353 -0.0360329 0.689537
3.63452 23.9751 2.02537 0.700599 -0.0239846 0.713152
4.3745 24.4938 1.48613 0.537097 -0.093536 0.838318
5.11452 25.0767 1.11026 0.483748 -0.0905457 0.870511
5.81585 25.7283 0.793355 0.436691 -0.08462 0.895623
6.04806 25.8734 0.701198 0.40398 -0.119209 0.906967
5.45185 22.5849 0.786861 0.451329 0.0122527 0.892274
4.59288 22.2831 1.25849 0.504538 0.0041009 0.86338
3.77164 22.0195 1.83674 0.665126 0.00702836 0.746698
3.07412 21.5419 2.49719 0.713852 -0.0126658 0.700182
2.43598 21.1346 3.16121 0.734781 -0.00398662 0.678293
1.82826 20.7585 3.89428 0.793648 0.0245811 0.60788
1.37926 20.2492 4.7036 0.885632 0.0235688 0.46379
0.959107 19.7488 5.59562 0.908966 0.0174655 0.416504
0.641275 19.2575 6.41433 0.941769 0.0335698 0.33458
0.367794 18.7941 7.43839 0.972086 0.0430603 0.230638
0.186113 21.6204 8.59558 0.989439 -0.0597225 0.132078
0.327535 22.4602 7.9427 0.983876 -0.0954676 0.151244
0.502051 23.2104 7.30461 0.981121 -0.0868978 0.172774
0.730893 24.0418 6.59933 0.951104 -0.132507 0.279005
1.05783 24.9329 5.92755 0.942673 -0.122463 0.310435
1.38997 25.6704 5.30455 0.917334 -0.151526 0.368156
1.84464 26.4698 4.67296 0.854098 -0.149558 0.498145
2.36379 27.1577 4.10094 0.811166 -0.168516 0.560011
2.92752 27.9237 3.52992 0.798891 -0.183379 0.57284
3.57886 28.6845 2.97313 0.638064 -0.234747 0.733326
4.19852 29.4527 2.66627 0.612476 -0.222642 0.758488
4.98602 29.9255 2.22616 0.542046 -0.235895 0.80656
5.88413 30.5707 1.90302 0.446697 -0.262397 0.855342
6.79899 31.0244 1.59197 0.392036 -0.267874 0.880086
7.9008 31.3845 1.2996 0.251248 -0.337785 0.90707
9.03205 31.4768 1.12993 0.142999 -0.35507 0.923838
10.0217 31.6144 1.08255 0.0867422 -0.37181 0.924247
11.0311 31.5824 1.0827 -0.10987 -0.299842 0.947641
12.0724 31.2946 1.18902 -0.214396 -0.304495 0.928072
13.0306 31.0679 1.40859 -0.346197 -0.273193 0.897504
13.9566 30.6782 1.68956 -0.419182 -0.273692 0.865667
14.9512 30.191 2.07435 -0.487385 -0.252886 0.835766
15.7016 29.6217 2.4582 -0.597188 -0.201097 0.776484
16.4471 28.7945 2.9283 -0.694565 -0.134908 0.706668
17.2195 27.9453 3.53399 -0.720521 -0.164764 0.673574
17.8517 27.1856 4.12646 -0.813151 -0.14092 0.564736
18.301 26.4601 4.65347 -0.853054 -0.105364 0.511074
18.7828 25.6054 5.27184 -0.915871 -0.165394 0.36582
19.1109 24.8694 5.89974 -0.956038 -0.111606 0.271175
19.3804 24.0019 6.55903 -0.968621 -0.0979792 0.228415
19.5864 23.1293 7.24038 -0.986179 -0.089088 0.139692
19.7295 22.3348 7.90861 -0.9914 -0.0799193 0.103624
19.749 22.2135 8.00151 -0.991811 -0.0785161 0.100731
19.7679 22.8583 8.72864 -0.993467 -0.082659 0.0786787
19.65 23.8117 8.22596 -0.992615 -0.0756921 0.0947956
19.4957 24.7382 7.63615 -0.982373 -0.14014 0.123706
19.3002 25.6065 7.14088 -0.96668 -0.177742 0.184222
19.0754 26.4576 6.65502 -0.965362 -0.145811 0.216367
18.7215 27.4115 6.08825 -0.93344 -0.196639 0.300036
18.3687 28.2415 5.63204 -0.927477 -0.184361 0.325266
18.0044 29.1267 5.05175 -0.909712 -0.148172 0.387903
17.5247 30.069 4.57745 -0.834218 -0.261065 0.485721
16.9481 30.8396 4.1043 -0.792594 -0.280283 0.541513
16.2003 31.5466 3.55235 -0.650313 -0.32066 0.688673
15.3898 32.1576 3.13777 -0.571075 -0.342235 0.746155
14.5902 32.7003 2.8297 -0.509819 -0.389597 0.767006
13.7091 33.2057 2.54771 -0.458732 -0.415493 0.785449
12.8235 33.7313 2.46612 -0.312321 -0.53022 0.78824
11.8517 33.9677 2.35711 -0.165625 -0.523667 0.835668
10.8548 34.0401 2.23016 -0.0952219 -0.537913 0.837605
9.85817 34.2145 2.31604 0.0913488 -0.606319 0.789958
8.78287 33.9887 2.31536 0.119904 -0.506805 0.853681
7.7982 33.8495 2.44287 0.228998 -0.544452 0.806927
6.85713 33.422 2.55365 0.393779 -0.479692 0.784113
5.96699 33.0404 2.80834 0.418567 -0.442337 0.793184
5.12655 32.5375 3.08627 0.55541 -0.335506 0.760891
4.32199 32.0658 3.56601 0.678371 -0.29356 0.673525
3.63858 31.4517 3.9722 0.77482 -0.306627 0.552842
3.04705 30.7467 4.40075 0.814494 -0.311476 0.489471
2.57615 29.9438 4.79183 0.850166 -0.272232 0.450675
2.08662 29.0459 5.35182 0.938798 -0.190585 0.286941
1.72313 28.206 5.85922 0.935762 -0.241424 0.257028
1.34286 27.2502 6.42601 0.944532 -0.217549 0.246032
0.990283 26.3159 7.0365 0.95214 -0.210899 0.221247
0.725076 25.4225 7.62462 0.979391 -0.182164 0.0872295
0.549081 24.5403 8.06715 0.988894 -0.146952 0.0221986
0.404257 23.6197 8.54772 0.990603 -0.127395 0.0497517
0.255189 22.7731 9.0627 0.993524 -0.113458 0.00605933
0.193966 22.1933 9.41946 0.994548 -0.104242 0.00285254
0.251927 22.4129 10.4542 0.989227 -0.131345 -0.0646443
0.374758 23.4093 10.1405 0.980136 -0.178123 -0.0872104
0.539235 24.4528 9.71695 0.983678 -0.178516 -0.0225861
0.708224 25.3722 9.32081 0.979264 -0.199113 -0.037361
0.895243 26.2929 8.91363 0.964901 -0.25962 -0.0395446
1.11926 27.2468 8.53398 0.968966 -0.233444 -0.081297
1.3346 28.1568 8.16958 0.966823 -0.254721 -0.0192495
1.58069 29.063 7.77263 0.961914 -0.269831 -0.0437283
1.88121 29.9946 7.34542 0.958222 -0.266429 0.104045
2.25042 30.9573 6.9221 0.94441 -0.2885 0.157661
2.63589 31.8201 6.55485 0.901183 -0.413194 0.130918
3.19615 32.7858 6.16173 0.86441 -0.469298 0.180426
3.77388 33.6116 5.74087 0.825271 -0.528901 0.197971
4.46994 34.3863 5.4577 0.73673 -0.612642 0.28618
5.22052 35.063 5.20937 0.600516 -0.698174 0.389788
6.07659 35.5111 4.98716 0.399969 -0.795071 0.455946
7.0272 35.8819 4.78777 0.3249 -0.785921 0.526087
7.99582 36.1895 4.72671 0.229553 -0.793226 0.564001
9.18468 36.3015 4.48521 0.0754189 -0.862326 0.500706
10.3079 36.3494 4.51164 0.0275854 -0.888005 0.459006
11.3192 36.2623 4.56122 -0.128684 -0.848745 0.512906
12.3054 36.0079 4.53429 -0.231312 -0.837388 0.495253
13.2827 35.6605 4.58059 -0.371428 -0.758023 0.536137
14.2224 35.213 4.68913 -0.405465 -0.837653 0.365972
15.1953 34.6865 4.92096 -0.643648 -0.722253 0.253117
15.9663 34.0132 5.25469 -0.744905 -0.584073 0.322452
16.6838 33.2114 5.60846 -0.822366 -0.508173 0.255881
17.2158 32.4011 5.94363 -0.878604 -0.4324 0.202696
17.753 31.4197 6.39166 -0.915578 -0.36699 0.164427
18.1328 30.5099 6.78322 -0.94549 -0.311953 0.0934591
18.4406 29.6162 7.15902 -0.952748 -0.279035 0.120043
18.742 28.7348 7.54451 -0.961366 -0.267906 0.0632588
19.0077 27.7336 7.96164 -0.975316 -0.215108 0.0498698
19.2154 26.6935 8.31534 -0.982635 -0.185482 -0.00496948
19.3935 25.6894 8.64668 -0.984646 -0.174237 -0.0106511
19.5515 24.7299 9.00925 -0.985814 -0.162227 -0.043045
19.6863 23.7552 9.46143 -0.985231 -0.170259 -0.0182081
19.7396 23.4016 9.61414 -0.990363 -0.137913 -0.0126798
19.6508 23.2652 10.6176 -0.971549 -0.181621 -0.15201
19.4966 24.2736 10.4381 -0.969462 -0.177606 -0.169115
19.332 25.3456 10.211 -0.969338 -0.190155 -0.155645
19.1563 26.36 10.0124 -0.966648 -0.21555 -0.138312
18.9742 27.3491 9.76809 -0.952338 -0.228884 -0.201656
18.7932 28.3193 9.51791 -0.957373 -0.193363 -0.214586
18.5295 29.2969 9.30347 -0.911834 -0.316286 -0.261766
18.2121 30.2289 9.02554 -0.886863 -0.394146 -0.241088
17.7713 31.2386 8.86984 -0.869265 -0.415442 -0.267928
17.2517 32.258 8.68032 -0.801427 -0.522517 -0.291015
16.7866 33.1514 8.29827 -0.777854 -0.549852 -0.304312
16.1479 34.0851 8.07874 -0.713055 -0.653251 -0.254591
15.3937 34.8493 7.91842 -0.624094 -0.719038 -0.305763
14.6102 35.5083 7.87305 -0.397069 -0.819787 -0.412656
13.7151 35.9976 7.79627 -0.441702 -0.869045 -0.222848
12.6646 36.3875 7.703 -0.295132 -0.943956 -0.147799
11.5637 36.6336 7.67445 -0.175723 -0.966628 -0.186417
10.4517 36.8084 7.50907 -0.0672292 -0.968942 -0.237973
9.38632 36.7977 7.68589 -0.00863944 -0.967704 -0.251942
8.25499 36.6333 7.80427 0.188571 -0.964906 -0.182752
7.25796 36.3359 7.81435 0.341803 -0.909699 -0.235835
6.26533 35.8913 7.95916 0.395351 -0.88117 -0.259301
5.34371 35.3054 8.23027 0.506397 -0.763343 -0.401086
4.55057 34.5361 8.48141 0.675417 -0.695193 -0.246003
3.92143 33.7391 8.65353 0.733202 -0.597324 -0.32499
3.27879 32.7601 8.87779 0.783937 -0.542366 -0.30213
2.82272 31.8044 8.98847 0.891714 -0.378952 -0.247469
2.46842 30.8858 9.27326 0.864524 -0.461171 -0.199799
2.11454 29.976 9.53307 0.884143 -0.420591 -0.203455
1.82853 28.9838 9.84588 0.90829 -0.358215 -0.216082
1.54194 27.9923 10.0323 0.92416 -0.290723 -0.247808
1.33309 27.0073 10.4175 0.914303 -0.30102 -0.270993
1.0957 26.0124 10.6577 0.92692 -0.286331 -0.242557
0.878054 25.0114 10.9726 0.928816 -0.290876 -0.229548
0.62162 23.956 11.2154 0.94096 -0.242949 -0.235734
0.44027 22.9418 11.4253 0.964027 -0.18416 -0.19167
0.362312 22.4057 11.5235 0.970615 -0.191484 -0.14574
0.466755 22.0605 12.6399 0.954337 -0.253715 -0.157701
0.719746 23.0985 12.5789 0.948749 -0.23025 -0.216471
1.00137 24.2042 12.3827 0.907731 -0.296385 -0.296951
1.30837 25.1813 12.294 0.91769 -0.294725 -0.266424
1.56235 26.1376 12.0417 0.875636 -0.338624 -0.344375
1.85464 27.0927 11.8896 0.849548 -0.355544 -0.389688
2.19423 28.0454 11.7518 0.806684 -0.361018 -0.467896
2.51258 28.9814 11.5009 0.784858 -0.396472 -0.476243
2.95044 29.9584 11.3839 0.758233 -0.425107 -0.494334
3.39014 30.9982 11.1604 0.762756 -0.440119 -0.473814
3.84776 31.922 11.0333 0.737886 -0.468398 -0.48593
4.37309 32.8324 10.817 0.680714 -0.550379 -0.483437
5.10678 33.6182 10.7631 0.522866 -0.61814 -0.586953
5.89974 34.2943 10.6034 0.450813 -0.677737 -0.580896
6.75336 34.8178 10.5383 0.366456 -0.729654 -0.577335
7.74244 35.2713 10.4472 0.224286 -0.788516 -0.572659
8.75878 35.5062 10.3709 0.12977 -0.826049 -0.548454
9.78615 35.6561 10.3151 0.0571932 -0.830584 -0.553949
10.8041 35.6733 10.2636 -0.111277 -0.825037 -0.554014
11.797 35.472 10.2926 -0.158609 -0.813311 -0.559793
12.8515 35.1767 10.2981 -0.312842 -0.808756 -0.498039
13.7515 34.7046 10.3574 -0.438655 -0.732408 -0.520731
14.6135 34.0495 10.5034 -0.48945 -0.729475 -0.477813
15.3903 33.3154 10.6171 -0.623511 -0.606057 -0.493892
16.0744 32.4544 10.7478 -0.644287 -0.575772 -0.503369
16.6743 31.6366 10.8088 -0.699623 -0.49863 -0.511757
17.2198 30.6933 10.8973 -0.798633 -0.430845 -0.420189
17.6892 29.7867 10.9417 -0.801377 -0.407677 -0.437714
18.0555 28.8618 11.1256 -0.814387 -0.390619 -0.429174
18.3867 27.8029 11.2743 -0.856827 -0.341786 -0.386043
18.687 26.7964 11.4182 -0.901752 -0.302842 -0.308432
18.9468 25.8001 11.535 -0.923207 -0.235782 -0.303473
19.1761 24.7979 11.5835 -0.955149 -0.20788 -0.210895
19.388 23.712 11.6237 -0.9634 -0.202925 -0.175164
19.5456 22.9756 11.6313 -0.96533 -0.208418 -0.157161
19.4592 22.4032 12.7211 -0.950111 -0.230688 -0.209934
19.1879 23.3761 12.8157 -0.933318 -0.228863 -0.276657
18.9255 24.3407 12.7907 -0.903703 -0.272307 -0.330408
18.5718 25.2991 12.7934 -0.84925 -0.307525 -0.429189
18.2288 26.3309 12.7292 -0.823777 -0.333248 -0.458625
17.8046 27.3677 12.7169 -0.807268 -0.332339 -0.487718
17.3645 28.3223 12.6733 -0.760713 -0.417518 -0.496984
16.8797 29.2256 12.61 -0.724641 -0.436824 -0.532991
16.3916 30.1313 12.529 -0.692395 -0.438271 -0.573156
15.7815 31.0344 12.4396 -0.623206 -0.505685 -0.596571
15.0817 31.9028 12.3335 -0.521311 -0.552671 -0.650223
14.2184 32.66 12.2639 -0.381058 -0.637695 -0.669432
13.3365 33.2979 12.0971 -0.304561 -0.639506 -0.705886
12.3966 33.7592 12.0482 -0.215387 -0.700467 -0.680408
11.3115 34.0363 12.0416 -0.13594 -0.725417 -0.674753
10.1421 34.1394 12.0812 -0.0302065 -0.681463 -0.731229
9.00727 34.0511 12.1315 0.0686949 -0.695007 -0.715714
8.01115 33.8324 12.1426 0.226941 -0.666751 -0.709888
7.11573 33.3917 12.2685 0.242424 -0.628892 -0.738732
6.20627 32.8482 12.3327 0.327352 -0.594199 -0.734689
5.4095 32.0688 12.5402 0.442805 -0.57034 -0.691836
4.76554 31.2554 12.6645 0.590571 -0.473501 -0.65347
4.33195 30.266 12.9489 0.607816 -0.433672 -0.665198
3.78833 29.2704 13.0914 0.706368 -0.424557 -0.566389
3.28398 28.3942 13.1321 0.710869 -0.447808 -0.542341
2.8536 27.4672 13.2943 0.741627 -0.413554 -0.528169
2.38152 26.5313 13.3138 0.785336 -0.394208 -0.477334
1.99099 25.6199 13.4314 0.810595 -0.382196 -0.443691
1.61434 24.5396 13.5928 0.856316 -0.335985 -0.392222
1.24692 23.5322 13.6912 0.8716 -0.342419 -0.350804
0.891965 22.5666 13.7453 0.904915 -0.321725 -0.278608
0.595492 21.7571 13.7637 0.924532 -0.293347 -0.243286
0.919759 21.7203 14.8902 0.874685 -0.408992 -0.260098
1.35508 22.6672 14.8949 0.852125 -0.394411 -0.343982
1.84305 23.6782 14.9009 0.822735 -0.407069 -0.39674
2.27457 24.6092 14.8386 0.801125 -0.401279 -0.444043
2.84053 25.6216 14.8081 0.70894 -0.449436 -0.543518
3.41168 26.5684 14.7308 0.684498 -0.443684 -0.578453
3.87874 27.4565 14.5598 0.65273 -0.461222 -0.601015
4.46708 28.3228 14.5142 0.622132 -0.478919 -0.619345
4.66973 28.5568 14.5313 0.590474 -0.500997 -0.632726
3.20194 24.6409 16.0893 0.670727 -0.500453 -0.547423
2.53234 23.7741 16.0229 0.740101 -0.47401 -0.477038
1.9902 22.8796 16.0841 0.781042 -0.495766 -0.379721
1.3884 21.8764 16.0621 0.843259 -0.450121 -0.293779
1.05764 21.3132 16.0275 0.796261 -0.547765 -0.256753
1.39892 21.2998 17.2079 0.788653 -0.572028 -0.225412
1.53542 21.4866 17.2214 0.768549 -0.579525 -0.271079
15.9716 26.822 15.3091 -0.600116 -0.443932 -0.665422
16.6802 25.9229 15.2472 -0.673417 -0.445232 -0.590151
17.2538 25.0482 15.2441 -0.695601 -0.452506 -0.558012
17.8187 24.1582 15.1782 -0.76469 -0.418867 -0.489693
18.3638 23.2034 15.0774 -0.822004 -0.427953 -0.37572
18.8341 22.3185 14.9968 -0.845356 -0.430183 -0.316725
19.0025 21.9914 14.9715 -0.868622 -0.422788 -0.258354
19.2432 22.1607 13.8573 -0.926621 -0.277185 -0.254051
18.9248 23.1094 13.9109 -0.882748 -0.327639 -0.336761
18.5393 24.0625 13.9516 -0.836792 -0.382932 -0.391335
18.0293 25.0855 14.0237 -0.811585 -0.358392 -0.461394
17.5209 26.1184 14.0354 -0.762547 -0.390671 -0.515653
17.0903 27.0467 13.959 -0.69872 -0.389074 -0.600343
16.4717 27.9393 14.0567 -0.663687 -0.41947 -0.619326
15.8669 28.8085 14.0326 -0.565523 -0.4596 -0.684801
15.2991 29.6874 13.8925 -0.517326 -0.486132 -0.704308
14.6117 30.4426 13.8014 -0.450516 -0.529161 -0.719044
14.2041 30.9051 13.6705 -0.396249 -0.546557 -0.737741
17.0765 24.1351 16.3208 -0.681698 -0.55255 -0.479559
17.7157 23.319 16.2423 -0.751175 -0.529844 -0.393703
18.373 22.4021 16.1613 -0.802337 -0.510158 -0.309827
18.7903 21.7799 16.1267 -0.812311 -0.531476 -0.240176
18.8748 21.6542 16.1193 -0.827482 -0.517445 -0.217999
